ply
format ascii 1.0
element vertex 1637
property float x
property float y
property float z
end_header
-15.676021 0.366430 2.581488
-18.297258 0.508107 3.457843
-3.100942 -0.276909 -1.853604
-3.266646 -0.266889 -1.849860
-3.451165 -0.256341 -1.849289
-3.659032 -0.243797 -1.851194
-3.881111 -0.230344 -1.850967
-4.143373 -0.214509 -1.858396
-4.396945 -0.199781 -1.849953
-4.710166 -0.180782 -1.852336
-5.046097 -0.160322 -1.849368
-5.164794 -0.152890 -1.757689
-5.377460 -0.139115 -1.690219
-5.710403 -0.118341 -1.649277
-6.185291 -0.090270 -1.630524
-6.705084 -0.058279 -1.599436
-7.359108 -0.018177 -1.574202
-8.240888 0.035656 -1.561665
-9.274119 0.055072 -1.531158
-10.453777 0.122084 -1.475296
-11.383599 0.174206 -1.334106
-13.347776 0.285378 -1.247886
-14.165414 0.334708 -0.991875
-14.150194 0.335956 -0.660738
-14.145167 0.340231 -0.328756
-14.144353 0.344761 0.000193
-14.116113 0.345256 0.328458
-14.103959 0.349127 0.659033
-14.100218 0.353445 0.987910
-25.741987 1.021182 2.419108
-25.741335 1.024936 3.028949
-22.446873 0.843991 3.170151
-15.666961 0.459650 2.580950
-18.301241 0.614482 3.459833
-3.111920 -0.257371 -1.860698
-3.265544 -0.247102 -1.849825
-3.451758 -0.235348 -1.850189
-3.654224 -0.221909 -1.849365
-3.876171 -0.207133 -1.849221
-4.140165 -0.190354 -1.857545
-4.393575 -0.173395 -1.849141
-4.706673 -0.152552 -1.851566
-5.042517 -0.130983 -1.848641
-5.168649 -0.121479 -1.759556
-5.358406 -0.107882 -1.684828
-5.714198 -0.084690 -1.650875
-6.167634 -0.054144 -1.626435
-6.646407 -0.022829 -1.586071
-7.354577 0.024490 -1.573729
-8.183069 0.079987 -1.551294
-9.267050 0.110273 -1.530440
-10.440462 0.182092 -1.473837
-11.383690 0.242399 -1.334478
-13.325325 0.363889 -1.246134
-14.160705 0.416676 -0.991774
-14.153305 0.420792 -0.660998
-14.138261 0.424447 -0.328607
-14.129597 0.426003 0.000284
-14.101187 0.428812 0.328319
-14.089028 0.432598 0.658661
-14.087396 0.434583 0.987445
-25.729120 1.169597 2.418905
-25.726196 1.177709 3.028424
-22.474617 0.975940 3.175354
-15.665418 0.550542 2.581714
0.001572 -0.444910 -0.015618
-3.103929 -0.239495 -1.856592
-3.250426 -0.228802 -1.841968
-3.445204 -0.215401 -1.847343
-3.643966 -0.201051 -1.844852
-3.874755 -0.184410 -1.849183
-4.136829 -0.166239 -1.856694
-4.393795 -0.147565 -1.849869
-4.703061 -0.125165 -1.850798
-5.033120 -0.102035 -1.845868
-5.174279 -0.090794 -1.762063
-5.333529 -0.078194 -1.677658
-5.702441 -0.052032 -1.648080
-6.159492 -0.018612 -1.624870
-6.676898 0.018131 -1.593818
-7.340048 0.066435 -1.571188
-8.134818 0.124360 -1.542763
-9.255845 0.163511 -1.529081
-10.430760 0.242227 -1.472930
-10.983079 0.282117 -1.288451
-10.961659 0.284255 -1.028179
-10.934267 0.284051 -0.769582
-14.138122 0.502034 -0.660442
-14.111074 0.504799 -0.328020
-14.108386 0.506700 0.000366
-14.083960 0.509608 0.328128
-14.081741 0.514013 0.658666
-14.086072 0.516396 0.987829
-25.743221 1.319810 2.421333
-18.890106 0.856270 2.220577
-23.874578 1.202989 3.375564
-15.657434 0.641051 2.581498
-15.645139 0.645246 2.957922
-3.119881 -0.219982 -1.866741
-3.259590 -0.208930 -1.847800
-3.440324 -0.195419 -1.845434
-3.651441 -0.179019 -1.849292
-3.875017 -0.161566 -1.849999
-4.129699 -0.142409 -1.854220
-4.386505 -0.122267 -1.847522
-4.697445 -0.097957 -1.849304
-5.034839 -0.072381 -1.847187
-5.174057 -0.060450 -1.762655
-5.384675 -0.043108 -1.694231
-5.702016 -0.018645 -1.648580
-6.170452 0.018281 -1.628349
-6.674133 0.056986 -1.593763
-7.307739 0.106889 -1.564925
-8.152977 0.173245 -1.546749
-9.248242 0.216954 -1.528366
-10.414786 0.301849 -1.471195
0.001583 -0.444068 -0.015589
0.001583 -0.444068 -0.015589
-10.919961 0.346689 -0.768816
-14.136410 0.584160 -0.660523
-14.107378 0.586605 -0.327964
-14.100677 0.588212 0.000464
-14.082226 0.591409 0.328325
-14.072007 0.595215 0.658574
-14.078313 0.597777 0.987787
0.001583 -0.444068 -0.015589
0.001583 -0.444068 -0.015589
-20.701208 1.104293 2.926205
-15.656819 0.732075 2.582587
-18.281862 0.935161 3.460588
-3.115128 -0.201885 -1.864671
-3.252973 -0.190157 -1.844833
-3.435321 -0.175473 -1.843525
-3.644505 -0.157992 -1.846569
-3.871521 -0.138974 -1.849107
-4.126078 -0.118360 -1.853370
-4.382740 -0.096735 -1.846712
-4.689812 -0.070943 -1.847086
-5.032620 -0.042976 -1.847142
-5.173665 -0.030100 -1.763247
-5.361352 -0.013381 -1.687656
-5.693748 0.014117 -1.646884
-6.136848 0.051712 -1.620229
-6.647872 0.093933 -1.588202
-7.300561 0.149052 -1.564040
-8.031742 0.211013 -1.524602
-9.240366 0.270300 -1.527652
-10.402433 0.361607 -1.470014
-10.956166 0.408014 -1.286222
-10.950584 0.411114 -1.027834
-14.163620 0.663983 -0.992845
-14.128273 0.665807 -0.660333
-14.093230 0.667627 -0.327688
-14.100487 0.670285 0.000570
-14.091972 0.674177 0.328814
-14.071759 0.677140 0.658960
-14.074063 0.679423 0.988028
0.001588 -0.443646 -0.015575
0.001588 -0.443646 -0.015575
0.001588 -0.443646 -0.015575
-15.649761 0.822671 2.582695
-18.275551 1.041028 3.461085
-0.456438 -0.405046 -0.287424
-3.249730 -0.171159 -1.843822
-3.440782 -0.154699 -1.847238
-3.630345 -0.137656 -1.840266
-3.860704 -0.117035 -1.844802
-4.124085 -0.093470 -1.853330
-4.376999 -0.071401 -1.845134
-4.683897 -0.043859 -1.845593
-5.032041 -0.012553 -1.847779
-5.184422 0.001239 -1.767668
-5.356887 0.017741 -1.687016
-5.706257 0.049640 -1.651227
-6.124256 0.086631 -1.617656
-6.654273 0.134622 -1.590441
-7.287162 0.191939 -1.561913
-8.147182 0.269521 -1.546989
-9.210534 0.321793 -1.523396
-10.391556 0.423239 -1.469107
-11.368850 0.506389 -1.334604
-13.215870 0.664934 -1.237680
0.001573 -0.443248 -0.015561
-14.125647 0.747893 -0.660416
-14.084611 0.749017 -0.327545
-14.069721 0.752315 0.000644
-14.049427 0.752698 0.328036
-14.047153 0.757056 0.658199
-14.063172 0.762996 0.987846
0.001573 -0.443248 -0.015561
0.001573 -0.443248 -0.015561
0.001573 -0.443248 -0.015561
-15.647861 0.916450 2.583785
-18.274513 1.147370 3.462698
-0.466506 -0.401011 -0.293516
-3.244610 -0.151799 -1.841833
-3.431972 -0.134501 -1.843455
-3.628481 -0.115712 -1.840230
-3.867791 -0.093595 -1.849033
-4.122026 -0.069328 -1.853291
-4.374732 -0.045031 -1.845093
-4.679669 -0.016645 -1.844826
-5.023886 0.016301 -1.845689
-5.183676 0.031670 -1.768262
-5.323726 0.046199 -1.677473
-5.701432 0.082716 -1.650630
-6.111478 0.121411 -1.615085
-6.608200 0.169397 -1.580292
-7.289358 0.233576 -1.563097
-8.172459 0.318137 -1.552449
-9.205856 0.376827 -1.523326
-10.380493 0.482941 -1.468203
-11.357077 0.573720 -1.333831
-13.187239 0.741795 -1.235566
0.001578 -0.442826 -0.015547
-14.122300 0.832477 -0.660496
-14.073525 0.830173 -0.327359
-14.066581 0.834109 0.000746
-14.042091 0.836453 0.328136
-14.045962 0.838913 0.658583
-14.054009 0.844200 0.987801
-18.293863 1.235157 1.719894
-18.293385 1.241066 2.154461
-18.267328 1.244614 2.584529
-15.640001 1.004257 2.583889
-18.263071 1.252848 3.462448
-0.461131 -0.398477 -0.290445
-3.237723 -0.133758 -1.838867
-3.428447 -0.115096 -1.842484
-3.633718 -0.094349 -1.843776
-3.854912 -0.071941 -1.843874
-4.112545 -0.045892 -1.850008
-4.372458 -0.020202 -1.845054
-4.677145 0.010712 -1.844784
-5.021164 0.045641 -1.845646
-5.182759 0.062104 -1.768855
-5.313232 0.076514 -1.675053
-5.683006 0.114456 -1.646190
-6.121629 0.158324 -1.618564
-6.625886 0.209950 -1.585287
-7.252133 0.273945 -1.556009
-8.159986 0.366250 -1.550913
-9.181497 0.426774 -1.520040
-10.365134 0.542188 -1.466747
-11.353223 0.637713 -1.333982
-13.156652 0.813542 -1.233275
-14.154075 0.913357 -0.993370
-14.118951 0.912108 -0.660584
-14.063976 0.911424 -0.327218
-14.043076 0.913973 0.000825
-14.024779 0.914306 0.327986
-14.032393 0.919614 0.658393
-14.052319 0.926121 0.988323
-18.287529 1.344499 1.720395
-18.287321 1.347215 2.155052
-18.265181 1.350991 2.585773
-15.633081 1.097669 2.584325
-18.260796 1.359221 3.464060
-0.476280 -0.393765 -0.299591
-3.237596 -0.113980 -1.839811
-3.429989 -0.094009 -1.844323
-3.628047 -0.072750 -1.841949
-3.850869 -0.048858 -1.842983
-4.106494 -0.021460 -1.848346
-4.371732 0.006326 -1.845782
-4.678102 0.039240 -1.846192
-5.018187 0.075841 -1.845601
-5.189112 0.094233 -1.771999
-5.372757 0.114944 -1.694593
-5.681526 0.148776 -1.646691
-6.142979 0.197666 -1.625068
-6.618027 0.249270 -1.584315
-7.269174 0.319616 -1.560500
-8.145273 0.414045 -1.549009
-9.097617 0.473752 -1.507092
-10.347294 0.602889 -1.465014
-11.350574 0.705874 -1.334359
-13.121237 0.889183 -1.230613
-14.135844 0.996737 -0.992584
-14.108685 0.996069 -0.660394
-14.101456 0.999937 -0.328133
-14.096444 1.004032 0.000996
-14.086082 1.005083 0.329791
-14.063797 1.007378 0.660402
-14.067753 1.012369 0.990124
-18.280558 1.453817 1.720896
-18.280315 1.456539 2.155646
-18.252235 1.459565 2.585616
-15.631498 1.191665 2.585739
-18.253677 1.468386 3.464929
-0.462286 -0.392037 -0.291428
-3.233925 -0.095102 -1.838800
-3.427931 -0.073834 -1.844288
-3.625876 -0.051447 -1.841914
-3.850361 -0.026084 -1.843800
-4.107735 0.002271 -1.849931
-4.367254 0.031715 -1.844974
-4.677116 0.066794 -1.846876
-5.013372 0.104060 -1.844877
-5.191613 0.125133 -1.773869
-5.337203 0.142756 -1.684458
-5.666687 0.179648 -1.643351
-6.131521 0.232594 -1.623002
-6.583135 0.283208 -1.576923
-7.243412 0.358267 -1.555896
-8.120841 0.457767 -1.545270
-9.105942 0.528012 -1.509279
-10.337378 0.660645 -1.464390
-11.349705 0.772281 -1.334967
0.001568 -0.441581 -0.015504
-13.353895 0.992960 -0.938992
-14.106134 1.078361 -0.660570
-14.106831 1.083058 -0.328346
-14.096116 1.084007 0.001098
-14.081493 1.087039 0.329984
-14.069116 1.090294 0.661166
-14.065363 1.091985 0.990642
0.001568 -0.441581 -0.015504
-18.278950 1.563295 2.156938
-18.245255 1.562341 2.586293
-15.629960 1.280244 2.587147
-18.244295 1.574155 3.465420
-0.463722 -0.388778 -0.292430
-3.231880 -0.076065 -1.838767
-3.418740 -0.054477 -1.840507
-3.620032 -0.030571 -1.840088
-3.844316 -0.003910 -1.842057
-4.101401 0.026640 -1.848270
-4.355297 0.056218 -1.841091
-4.674129 0.094124 -1.846835
-5.006314 0.133786 -1.843469
-5.201458 0.156946 -1.778292
-5.316687 0.171922 -1.679072
-5.659081 0.213240 -1.642205
-6.106390 0.265866 -1.617406
-6.609665 0.326262 -1.584211
-7.182199 0.395065 -1.543847
-8.066547 0.500659 -1.536008
-9.076686 0.578196 -1.505349
-10.320813 0.721275 -1.462934
-11.342542 0.838028 -1.334888
-12.495530 0.972127 -1.173933
-11.431973 0.855588 -0.806532
-11.822130 0.901632 -0.556398
-14.097834 1.164677 -0.328251
-14.090794 1.168491 0.001200
-14.074437 1.168762 0.330128
-14.054102 1.171035 0.660974
-14.067898 1.177214 0.991591
-14.087827 1.184128 1.324557
0.001574 -0.441159 -0.015489
-18.254656 1.673514 2.589503
-15.623375 1.373847 2.587906
-18.236267 1.680086 3.466284
-0.468532 -0.384995 -0.295467
-3.221011 -0.057520 -1.833845
-3.419908 -0.033372 -1.842346
-3.615769 -0.008900 -1.839157
-3.850717 0.019714 -1.846288
-4.096833 0.050447 -1.847421
-4.348605 0.082031 -1.839514
-4.665427 0.120777 -1.844618
-5.006665 0.163469 -1.844790
-5.197939 0.187300 -1.778248
-5.265673 0.197204 -1.664190
-5.666687 0.247619 -1.645452
-6.096468 0.300727 -1.615844
-6.610946 0.365429 -1.585536
-7.173541 0.435099 -1.542967
-8.035818 0.542985 -1.531166
-9.074413 0.632905 -1.505925
-10.308064 0.780396 -1.462034
-11.340685 0.906415 -1.335496
-11.923308 0.979539 -1.121567
-11.448092 0.924658 -0.808099
-12.365457 1.038121 -0.581559
-14.096285 1.247220 -0.328333
-14.089217 1.251002 0.001304
-14.076548 1.254100 0.330517
-14.056476 1.253809 0.661641
-14.050411 1.257678 0.991117
0.001579 -0.440739 -0.015475
-14.072582 1.267105 1.659476
-14.082716 1.272957 1.995678
0.001579 -0.440739 -0.015475
-18.241289 1.787657 3.469755
-0.464793 -0.382377 -0.293414
-3.222291 -0.038692 -1.835769
-3.407073 -0.015184 -1.836692
-3.609757 0.011257 -1.837333
-3.844437 0.041830 -1.844546
-4.097581 0.074893 -1.849006
-4.349291 0.107181 -1.841013
-4.660276 0.147814 -1.843852
-5.012437 0.193884 -1.848157
-5.205525 0.219069 -1.782032
-5.256241 0.227204 -1.662366
-5.666463 0.281130 -1.646505
-6.099791 0.337210 -1.617813
-6.600394 0.403176 -1.584108
-7.181810 0.479804 -1.545805
-8.063001 0.595314 -1.537361
-9.031052 0.679375 -1.499745
-10.291049 0.838922 -1.460581
0.001563 -0.440339 -0.015461
-12.065392 1.065255 -1.135428
-11.424214 0.988988 -0.806923
-11.669102 1.021406 -0.549971
-14.092282 1.329539 -0.328372
-14.091146 1.334034 0.001412
-14.072811 1.333858 0.330754
-14.056396 1.336405 0.662212
-14.042369 1.339246 0.991352
0.001563 -0.440339 -0.015461
0.001563 -0.440339 -0.015461
0.001563 -0.440339 -0.015461
-14.051284 1.356359 2.329452
-14.096091 1.364202 2.679868
-0.449080 -0.381199 -0.284234
-3.218132 -0.019395 -1.834758
-3.406252 0.005666 -1.837595
-3.610589 0.033526 -1.839088
-3.830752 0.063637 -1.839388
-4.085503 0.097693 -1.844913
-4.340487 0.132664 -1.838668
-4.653018 0.175380 -1.842361
-5.016175 0.224131 -1.850842
-5.194010 0.249364 -1.779436
-5.257872 0.259554 -1.664102
-5.675558 0.315951 -1.650301
-6.104663 0.375089 -1.620284
-6.585801 0.440284 -1.581763
-7.246215 0.530919 -1.560637
-8.029639 0.638474 -1.532151
-9.004702 0.730790 -1.496460
-10.271720 0.897059 -1.458853
-11.399282 1.047550 -1.344065
-11.902239 1.117069 -1.121039
-11.039889 1.005961 -0.780790
0.001569 -0.439919 -0.015446
-11.423118 1.063665 -0.269225
-14.086657 1.416346 0.001511
-14.060058 1.417484 0.330800
-14.053535 1.421238 0.662689
-14.047710 1.422603 0.992580
-14.031960 1.425152 1.322391
-14.039831 1.430807 1.658256
0.001569 -0.439919 -0.015446
0.001569 -0.439919 -0.015446
0.001569 -0.439919 -0.015446
-0.460687 -0.376577 -0.291344
-3.215674 -0.000464 -1.834726
-3.414152 0.027114 -1.843183
-3.604270 0.054237 -1.837264
-3.833176 0.086837 -1.841913
-4.080541 0.121372 -1.844065
-4.333489 0.157538 -1.837093
-4.649411 0.202575 -1.842321
-4.995521 0.251097 -1.844664
-5.227534 0.284861 -1.792153
-5.255672 0.290483 -1.664652
-5.674944 0.349550 -1.651354
-6.105634 0.411439 -1.621749
-6.582572 0.478866 -1.582171
-7.250220 0.574384 -1.562650
-8.048600 0.688671 -1.536875
-8.989997 0.781976 -1.495109
-10.256026 0.955517 -1.457679
-11.085425 1.071970 -1.308404
0.001574 -0.439497 -0.015432
-11.037317 1.070741 -0.781126
-11.340468 1.115945 -0.535560
-12.091725 1.222985 -0.284204
-14.083652 1.498956 0.001613
-14.062987 1.500762 0.331234
-14.044563 1.502837 0.662876
-14.040697 1.504447 0.992955
-14.030851 1.507717 1.323423
-14.042567 1.513997 1.659991
-14.007837 1.511277 1.989779
0.001574 -0.439497 -0.015432
0.001574 -0.439497 -0.015432
-0.460308 -0.373491 -0.291327
-3.211390 0.018199 -1.833717
-3.402678 0.045927 -1.838466
-3.611996 0.076918 -1.842601
-3.828320 0.109040 -1.841025
-4.079057 0.145539 -1.844839
-4.333630 0.183436 -1.838592
-4.645650 0.229748 -1.842281
-5.008228 0.282671 -1.850759
-5.242046 0.318074 -1.798489
-5.249499 0.320877 -1.664016
-5.676029 0.383455 -1.652956
-6.092983 0.445885 -1.619685
-6.555986 0.514098 -1.577075
-7.238459 0.615688 -1.561356
-8.063388 0.738530 -1.540864
-9.029726 0.840790 -1.502770
-10.238018 1.013585 -1.456228
-11.635171 1.215634 -1.373525
-12.191097 1.298729 -1.149488
0.001579 -0.439076 -0.015418
-11.046515 1.140921 -0.522414
-11.357550 1.189156 -0.268015
-14.080183 1.581580 0.001714
-14.055544 1.582703 0.331423
-14.048940 1.586411 0.663732
-14.039135 1.587128 0.993756
-14.027282 1.590056 1.324266
-14.031095 1.595246 1.660081
-14.012026 1.594635 1.992115
-13.994680 1.596738 2.325806
-13.978787 1.599052 2.664120
-0.449715 -0.371939 -0.285202
-3.208718 0.037092 -1.833686
-3.396356 0.065395 -1.836560
-3.591286 0.095491 -1.833615
-3.821531 0.130957 -1.839283
-4.073719 0.169874 -1.843991
-4.330001 0.208776 -1.838555
-4.630666 0.255251 -1.837890
-5.009437 0.313633 -1.852761
-5.243224 0.349515 -1.800360
-5.248827 0.352074 -1.665160
-5.671047 0.417542 -1.652909
-6.085899 0.481065 -1.619134
-6.559839 0.554860 -1.579317
-7.235944 0.659627 -1.562128
-8.071805 0.789140 -1.543748
-8.985115 0.887703 -1.496592
-10.223344 1.073855 -1.455329
-10.988688 1.188728 -1.299072
-11.568241 1.278380 -1.092377
-10.904443 1.183500 -0.773023
-11.282276 1.241415 -0.533593
-11.197692 1.232522 -0.264595
-14.077827 1.666999 0.001819
-14.051578 1.665221 0.331708
-14.042971 1.668593 0.664109
-14.034753 1.672006 0.994416
-14.024817 1.675178 1.325300
-14.030911 1.678235 1.661580
-14.001668 1.678461 1.992488
-14.001838 1.683145 2.329165
-13.978468 1.681719 2.666446
-0.459515 -0.367270 -0.291294
-3.212734 0.057611 -1.837563
-3.391559 0.085691 -1.835590
-3.591612 0.117735 -1.835371
-3.821666 0.154592 -1.840954
-4.075581 0.194572 -1.846389
-4.324259 0.234594 -1.837747
-4.630175 0.283687 -1.839301
-4.999472 0.341998 -1.850675
-5.251576 0.383071 -1.804782
-5.255376 0.385385 -1.668677
-5.675546 0.452075 -1.655610
-6.078428 0.517275 -1.618582
-6.592492 0.599070 -1.588443
-7.210189 0.698634 -1.557941
-8.027718 0.830187 -1.536701
-9.016121 0.947397 -1.502964
-10.206656 1.131896 -1.454156
-11.243921 1.295184 -1.329985
-11.679882 1.366259 -1.103667
-10.883101 1.244851 -0.772128
-10.987803 1.264690 -0.520450
-11.173737 1.297220 -0.264210
-14.067448 1.748761 0.001911
-14.052669 1.751142 0.332142
-14.042071 1.754143 0.664774
-14.032218 1.754760 0.995215
-14.012415 1.756330 1.325389
-14.027907 1.763421 1.662845
-13.997041 1.760741 1.993701
-13.989389 1.764167 2.329254
-13.975331 1.766591 2.668401
-0.450594 -0.365555 -0.286186
-3.209846 0.076506 -1.837532
-3.386756 0.105341 -1.834621
-3.598940 0.140539 -1.840709
-3.811055 0.175853 -1.837505
-4.059239 0.216415 -1.840674
-4.318509 0.259595 -1.836942
-4.613064 0.308675 -1.834186
-4.989339 0.370284 -1.848589
-5.257995 0.415535 -1.808568
-5.248657 0.415757 -1.668042
-5.664622 0.484247 -1.653918
-6.069018 0.552049 -1.617527
-6.594097 0.638692 -1.590229
-7.217044 0.742767 -1.560782
-8.010600 0.875207 -1.534805
-8.894943 0.981667 -1.484236
-10.187661 1.189512 -1.452708
-11.161177 1.348699 -1.321418
-11.478552 1.403320 -1.085806
-11.277098 1.372747 -0.800157
-10.973882 1.327714 -0.520196
-11.319517 1.387088 -0.267611
-14.064488 1.831756 0.002012
-14.049705 1.834042 0.332475
-14.033148 1.836043 0.665054
-14.029180 1.837577 0.996014
-14.013284 1.839666 1.326795
-14.024791 1.846195 1.664107
-13.990012 1.842686 1.994631
-13.988141 1.847042 2.331302
-13.970124 1.848766 2.669980
-0.455288 -0.361715 -0.289224
-3.208569 0.095674 -1.838479
-3.388822 0.126107 -1.837399
-3.583217 0.159605 -1.834409
-3.803912 0.197595 -1.835765
-4.057223 0.240489 -1.841449
-4.318069 0.285479 -1.838442
-4.608719 0.335620 -1.834147
-4.984612 0.399415 -1.848549
-5.253011 0.446206 -1.808526
-5.236153 0.445090 -1.665627
-5.651647 0.515983 -1.651679
-6.068949 0.588365 -1.618993
-6.486080 0.659841 -1.565868
-7.227500 0.787663 -1.564451
-7.995157 0.920419 -1.533277
-8.956738 1.044882 -1.495760
-10.172272 1.247590 -1.451812
-11.084084 1.402289 -1.313542
-12.463820 1.635438 -1.178687
-11.116915 1.413168 -0.789667
-11.176360 1.426811 -0.529921
-11.468556 1.479374 -0.271099
-14.063029 1.915106 0.002115
-14.042307 1.916324 0.332710
-14.029667 1.918902 0.665620
-14.027640 1.920745 0.996953
-14.009744 1.922414 1.327824
-14.017272 1.928348 1.664899
-13.986393 1.925305 1.996123
-13.988350 1.930309 2.333677
-13.966393 1.931265 2.671932
-0.453149 -0.358963 -0.288189
-3.207173 0.114853 -1.839425
-3.380310 0.145122 -1.834557
-3.574441 0.179730 -1.831691
-3.803761 0.220524 -1.837437
-4.056864 0.264877 -1.843036
-4.299293 0.308221 -1.832256
-4.596847 0.361292 -1.831208
-4.970463 0.426905 -1.845100
-5.245979 0.476528 -1.807847
-5.236619 0.476645 -1.667365
-5.647985 0.549238 -1.652184
-6.062946 0.623716 -1.618947
-6.514176 0.703634 -1.574077
-7.210716 0.827968 -1.562333
-8.031762 0.974661 -1.541683
-8.918880 1.091848 -1.490872
-10.150690 1.304551 -1.450089
-11.100722 1.471218 -1.316683
-12.084660 1.644393 -1.144324
-10.966468 1.453514 -0.779863
-10.937065 1.452115 -0.519327
-11.356853 1.528416 -0.268783
-14.057136 1.997837 0.002212
-14.046238 2.000664 0.333237
-14.031604 2.002823 0.666472
-14.025624 2.003961 0.997892
-14.003774 2.004841 1.328664
-14.019045 2.012213 1.666864
-13.988149 2.008975 1.998456
-13.980304 2.012281 2.334743
-13.964128 2.014122 2.674254
-0.456065 -0.355303 -0.290208
-3.226278 0.137714 -1.852102
-3.369950 0.163764 -1.830778
-3.574378 0.201338 -1.833449
-3.801707 0.243153 -1.838256
-4.045457 0.288052 -1.839756
-4.294952 0.333377 -1.832220
-4.597684 0.389164 -1.833346
-4.948606 0.453806 -1.838923
-5.248107 0.508484 -1.810357
-5.242564 0.509237 -1.670884
-5.634459 0.581800 -1.649944
-6.062469 0.660060 -1.620414
-6.545605 0.749635 -1.583202
-7.166501 0.864522 -1.554425
-7.957486 1.010763 -1.529118
-8.907982 1.143274 -1.490490
-10.132384 1.363785 -1.448917
-11.093462 1.536240 -1.317070
-11.609772 1.631922 -1.100983
-12.618790 1.815921 -0.895871
-11.224962 1.568903 -0.533042
-11.357171 1.596314 -0.268974
-14.056217 2.084106 0.002319
-14.033936 2.082297 0.333372
-14.023221 2.085080 0.666846
-14.020708 2.089339 0.998691
-14.002747 2.090805 1.330070
-14.014478 2.095105 1.668124
-13.983118 2.094140 1.999949
-13.973282 2.097039 2.336138
-13.963305 2.097398 2.676949
-0.453893 -0.352497 -0.289174
-3.215975 0.155980 -1.848161
-3.364590 0.183851 -1.829809
-3.563501 0.221654 -1.829835
-3.794051 0.265461 -1.836515
-4.035825 0.310761 -1.837287
-4.293941 0.359941 -1.833720
-4.596396 0.417504 -1.834758
-4.945248 0.483051 -1.839565
-5.249870 0.541407 -1.812866
-5.242513 0.541779 -1.672622
-5.639859 0.616756 -1.653195
-6.042544 0.693938 -1.616839
-6.536762 0.787364 -1.582695
-7.155055 0.905460 -1.553548
-5.723253 0.638963 -1.105288
-8.877119 1.192579 -1.486889
-10.119930 1.422140 -1.448575
-11.151924 1.615369 -1.325259
-11.616869 1.704812 -1.102740
-11.153586 1.621165 -0.794383
-11.012466 1.598866 -0.523718
-11.370461 1.668827 -0.269471
-14.059179 2.168703 0.002427
-14.034468 2.168865 0.333852
-14.021755 2.171226 0.667603
-14.017677 2.172672 0.999629
-13.995765 2.173310 1.330909
-14.008955 2.180477 1.669386
-13.976091 2.176509 2.001157
-13.968129 2.179734 2.337857
-13.953796 2.181736 2.678155
-0.448342 -0.350435 -0.286103
-0.466396 -0.346836 -0.282163
-3.364455 0.204281 -1.831651
-3.556148 0.241909 -1.828012
-3.784760 0.286026 -1.833922
-4.038649 0.335775 -1.840497
-4.282050 0.383672 -1.830610
-4.589727 0.443229 -1.833996
-4.936195 0.511213 -1.838163
-5.262963 0.574685 -1.819205
0.001576 -0.435747 -0.015303
-5.624273 0.647807 -1.650407
-6.041850 0.729174 -1.618308
-6.552575 0.829809 -1.588153
-7.176282 0.951373 -1.559699
-7.863385 1.086798 -1.514297
-8.811355 1.233436 -1.477498
-10.103225 1.479700 -1.447682
-11.225807 1.696290 -1.335286
-11.635675 1.778029 -1.105601
-10.898495 1.639518 -0.777321
-10.965253 1.655921 -0.522017
-11.382100 1.737209 -0.269929
-14.045891 2.250440 0.002515
-14.034944 2.253074 0.334328
-14.012849 2.251050 0.667973
-14.014187 2.256026 1.000565
-13.992712 2.254099 1.332121
-14.007777 2.261721 1.671112
-13.976357 2.260387 2.003488
-13.968786 2.261128 2.340553
-13.952450 2.262667 2.680846
-0.451232 -0.346843 -0.288123
-0.471049 -0.342825 -0.285079
-3.353911 0.222103 -1.827874
-3.555837 0.262849 -1.829771
-3.780565 0.308209 -1.833889
-4.032370 0.359063 -1.839652
-4.277414 0.407985 -1.830575
-4.575458 0.468251 -1.830333
-4.934360 0.540765 -1.839487
-5.257081 0.605376 -1.819165
-5.240479 0.603854 -1.675509
-5.629269 0.682837 -1.653658
-6.031257 0.763604 -1.617255
-6.478364 0.854633 -1.572052
-7.148744 0.990516 -1.555514
0.001561 -0.435348 -0.015289
-8.790272 1.280767 -1.475510
-10.086203 1.537123 -1.446790
-11.163055 1.749421 -1.329251
-11.458969 1.811204 -1.090134
-11.152653 1.754941 -0.795887
-11.365089 1.798456 -0.540990
-11.367436 1.802755 -0.269814
-14.038054 2.333236 0.002609
-14.017737 2.331455 0.334361
-14.010877 2.334825 0.668726
-14.002354 2.337898 1.000933
-13.986252 2.339456 1.333148
-14.001740 2.344713 1.672370
-13.974179 2.343975 2.005538
-13.958325 2.345564 2.341619
-13.952071 2.346497 2.683912
-0.447328 -0.344428 -0.286070
-0.467056 -0.340282 -0.283107
-3.355146 0.243465 -1.830652
-3.551641 0.284349 -1.829738
-3.776083 0.331052 -1.833855
-4.018785 0.380862 -1.835562
-4.274155 0.434129 -1.831307
-4.568209 0.495415 -1.829570
-4.924984 0.568824 -1.838085
-5.269395 0.640752 -1.825502
-5.241702 0.636885 -1.677841
-5.615208 0.714109 -1.651421
-6.014563 0.797843 -1.614690
-6.507072 0.899760 -1.580721
-7.125099 1.028914 -1.552158
-7.931713 1.197289 -1.530741
-8.739305 1.325126 -1.468694
-10.063025 1.593249 -1.445070
-11.266752 1.839619 -1.342947
-11.548899 1.900496 -1.099775
-11.069448 1.805310 -0.790885
-18.252094 3.264899 -0.860402
-11.322614 1.864211 -0.269039
-18.247519 3.273067 0.008106
-14.016744 2.418196 0.334839
-14.003962 2.420346 0.669291
-13.995927 2.420904 1.001727
-13.985647 2.423567 1.334738
-13.998610 2.430963 1.674099
-13.967619 2.426836 2.007025
-13.959469 2.429901 2.344643
-13.946846 2.432052 2.686234
-0.446809 -0.341437 -0.286054
-0.457962 -0.338946 -0.278203
-3.347756 0.262445 -1.828749
-3.552698 0.306302 -1.832392
-3.762783 0.351333 -1.829556
-4.014022 0.404412 -1.835528
-4.260068 0.457235 -1.827430
-4.557304 0.520981 -1.827358
-4.919132 0.597582 -1.838047
-5.274257 0.673828 -1.829289
-5.250423 0.670594 -1.682548
-5.608519 0.746827 -1.651379
-6.014961 0.834456 -1.616663
-6.495469 0.936830 -1.579757
-7.152931 1.078029 -1.559963
-7.901036 1.238872 -1.526642
-8.715523 1.373013 -1.466385
-10.045380 1.650362 -1.444179
-11.193172 1.892346 -1.335765
-11.548919 1.970216 -1.100987
-11.054430 1.869014 -0.790680
-11.203268 1.903839 -0.534593
-11.412914 1.951488 -0.271296
0.001572 -0.434506 -0.015260
0.001572 -0.434506 -0.015260
-14.006834 2.505476 0.670330
-13.998764 2.505990 1.003229
-13.974799 2.505713 1.335385
-13.995458 2.514843 1.675825
-13.962531 2.510104 2.008792
-13.950443 2.512318 2.346032
-13.939698 2.514798 2.688180
-0.442896 -0.339160 -0.284001
-0.448884 -0.337723 -0.273299
-3.341959 0.281764 -1.827781
-3.539643 0.325282 -1.827885
-3.761743 0.374160 -1.831230
-4.003641 0.427454 -1.833060
-4.256670 0.482560 -1.828163
-4.549931 0.547213 -1.826597
-4.914773 0.627556 -1.838690
-5.277065 0.706591 -1.832439
-5.257036 0.704065 -1.686662
-5.588264 0.777645 -1.647495
-6.009444 0.869908 -1.617123
-6.464405 0.970793 -1.574207
-7.115168 1.114606 -1.553713
-7.912110 1.290735 -1.530635
-8.670218 1.416183 -1.460536
-10.027035 1.709094 -1.443287
-11.099930 1.940152 -1.326289
-11.414142 2.011242 -1.089554
-11.138122 1.955905 -0.797460
-11.234549 1.978385 -0.536610
-11.541685 2.048286 -0.274431
-18.228333 3.492485 0.008348
0.001555 -0.434107 -0.015246
-18.191916 3.493754 0.876349
-13.986909 2.590697 1.003740
-13.976555 2.593231 1.337353
-13.984056 2.597086 1.676611
-13.962214 2.597119 2.011404
-13.948128 2.598829 2.348730
-13.937835 2.598800 2.691244
-0.442316 -0.336100 -0.283984
-0.463645 -0.331264 -0.282080
-3.335949 0.301601 -1.826814
-3.540340 0.347823 -1.830539
-3.756881 0.396888 -1.831197
-3.998614 0.450917 -1.833026
-4.249376 0.507802 -1.827359
-4.545843 0.575022 -1.827285
-4.903096 0.655017 -1.836607
-5.279459 0.740358 -1.835587
-5.261392 0.738134 -1.690182
-5.598098 0.813982 -1.652394
-5.997842 0.905102 -1.616071
-6.475222 1.012646 -1.578748
-7.106143 1.155965 -1.553665
-7.873272 1.330245 -1.525065
-8.612833 1.457837 -1.452758
-10.016469 1.767641 -1.443501
-11.180737 2.027306 -1.337462
-11.341088 2.066480 -1.083985
-11.122231 2.019994 -0.797255
-11.163465 2.032921 -0.533911
-11.349092 2.077837 -0.270366
-18.230824 3.603416 0.008482
0.001561 -0.433686 -0.015232
0.001561 -0.433686 -0.015232
-8.415192 1.437129 0.598700
-13.970531 2.676707 1.338563
-13.981328 2.683892 1.678573
-13.952241 2.679638 2.012608
-13.953528 2.684701 2.352731
-13.931093 2.684451 2.693564
-0.448471 -0.331621 -0.288040
-0.461337 -0.328547 -0.281086
-3.331662 0.321220 -1.826784
-3.527069 0.366634 -1.826032
-3.743232 0.416913 -1.826898
-3.984563 0.472303 -1.828938
-4.249302 0.533891 -1.829631
-4.541810 0.601986 -1.827974
-4.891251 0.682398 -1.834525
-5.281854 0.773271 -1.838737
0.001566 -0.433265 -0.015217
-5.592707 0.847040 -1.652902
-5.984387 0.938731 -1.614517
-6.468683 1.050769 -1.579162
-7.066365 1.190266 -1.547004
-7.849584 1.372883 -1.522439
-8.584466 1.503919 -1.449807
-9.997840 1.824389 -1.442611
-11.172216 2.093364 -1.338084
-11.303208 2.126878 -1.081718
-11.024244 2.065460 -0.791299
0.001566 -0.433265 -0.015217
-11.531381 2.188328 -0.274729
-18.220911 3.711875 0.008601
-18.200459 3.713487 0.442021
-18.185650 3.716363 0.878563
0.001566 -0.433265 -0.015217
-8.401091 1.488134 0.800037
-8.408627 1.492743 1.004909
-13.945654 2.763021 2.014374
-13.941088 2.766775 2.353792
-13.926291 2.768151 2.696253
-0.436152 -0.331351 -0.280898
-0.457337 -0.326268 -0.279114
-3.322110 0.339604 -1.823944
-3.529375 0.388973 -1.829581
-3.738281 0.438871 -1.826866
-3.977334 0.495943 -1.828092
-4.231080 0.555824 -1.824217
-4.528504 0.626857 -1.825038
-4.884570 0.711796 -1.834487
-5.271155 0.803197 -1.837423
-5.258734 0.802087 -1.693664
-5.577536 0.878850 -1.650666
-5.961321 0.970041 -1.610442
-6.435153 1.083720 -1.573154
-6.982336 1.215055 -1.530836
-7.838736 1.419842 -1.522387
-8.528954 1.543484 -1.442353
-9.978491 1.882739 -1.441721
-11.171028 2.161228 -1.339622
-11.263070 2.186476 -1.079269
-11.057808 2.142563 -0.794655
-11.171297 2.170781 -0.535499
-11.453779 2.240577 -0.273257
-18.221327 3.826240 0.008736
-18.189915 3.821832 0.442462
0.001572 -0.432844 -0.015203
0.001572 -0.432844 -0.015203
0.001572 -0.432844 -0.015203
0.001572 -0.432844 -0.015203
-13.936061 2.848424 2.015860
-13.929513 2.851695 2.355181
-13.924809 2.852814 2.699688
-0.445579 -0.325936 -0.286989
-0.456700 -0.323136 -0.279098
-3.327795 0.362173 -1.829533
-3.517491 0.408647 -1.825970
-3.733232 0.460774 -1.826835
-3.970173 0.518796 -1.827249
-4.219755 0.580039 -1.821877
-4.522352 0.653315 -1.825003
-4.870588 0.738569 -1.831724
-5.269489 0.835273 -1.839298
-5.264527 0.835909 -1.697778
-5.538106 0.903704 -1.641295
-5.953148 1.004765 -1.610400
-6.449025 1.126658 -1.578614
-7.011084 1.263624 -1.539057
-7.832103 1.464919 -1.523074
-8.503656 1.591256 -1.440046
-9.938012 1.934163 -1.437799
-11.097464 2.214060 -1.332672
-11.423605 2.295778 -1.095875
-11.479445 2.310958 -0.825404
-11.303313 2.272793 -0.542317
-11.383752 2.293872 -0.271962
-18.204271 3.933395 0.008845
-18.185715 3.935262 0.443103
0.001556 -0.432445 -0.015189
0.001556 -0.432445 -0.015189
0.001556 -0.432445 -0.015189
0.001556 -0.432445 -0.015189
0.001556 -0.432445 -0.015189
-13.933975 2.935412 2.359177
-13.919019 2.936615 2.702376
-0.434951 -0.325484 -0.280865
-0.462872 -0.318516 -0.282992
-3.321608 0.380727 -1.828568
-3.511024 0.428251 -1.825045
-3.728179 0.482036 -1.826804
-3.973676 0.543553 -1.831273
-4.214052 0.603993 -1.821844
-4.516236 0.678956 -1.824969
-4.860334 0.765258 -1.830325
-5.247619 0.861458 -1.834158
-5.261102 0.866593 -1.698928
-5.519384 0.932235 -1.637964
-5.930008 1.034682 -1.606328
-6.453453 1.166337 -1.581781
-6.980600 1.298003 -1.534465
-7.804226 1.504773 -1.519715
-8.486474 1.637724 -1.439029
-9.940043 1.993794 -1.439947
-11.159728 2.295260 -1.341785
-11.373394 2.351404 -1.092512
-11.617055 2.412930 -0.836158
-11.208480 2.316778 -0.538539
-11.333399 2.349242 -0.271109
-18.208729 4.042578 0.008978
-18.188227 4.043854 0.443883
-8.393756 1.635145 0.399192
-8.389237 1.636934 0.600334
-8.384383 1.637106 0.801890
-8.387930 1.640892 1.006711
0.001561 -0.432023 -0.015175
-13.976214 3.028797 2.369710
-13.909508 3.017096 2.704315
-0.430975 -0.323311 -0.278813
-0.457113 -0.316611 -0.280043
-3.327024 0.403419 -1.834158
-3.504129 0.449058 -1.824119
-3.722545 0.505203 -1.826771
-3.953651 0.563958 -1.824751
-4.215013 0.631194 -1.824884
-4.509376 0.706942 -1.824933
-4.856802 0.795416 -1.831651
-5.239619 0.893919 -1.834118
-5.273437 0.904296 -1.705413
-5.533564 0.971059 -1.644509
-5.922837 1.071761 -1.606789
-6.440104 1.204050 -1.580820
-7.030615 1.356445 -1.547643
-7.777014 1.548952 -1.516721
-8.472125 1.687998 -1.438652
-9.925496 2.053139 -1.439887
-11.218513 2.380694 -1.350665
-11.399183 2.429929 -1.096475
-11.044585 2.342727 -0.796788
-11.589197 2.483550 -0.557042
-11.552752 2.478423 -0.276387
-18.205137 4.156827 0.009109
-18.188499 4.158962 0.444668
-8.388726 1.688760 0.399630
-8.380680 1.688087 0.600671
-8.385099 1.692133 0.803263
-8.382801 1.694484 1.007706
-18.099836 4.161435 2.634092
0.001562 -0.431598 -0.015160
-13.962428 3.121339 2.718938
-0.433683 -0.319556 -0.280833
-0.464891 -0.311383 -0.284913
-3.320457 0.422539 -1.833192
-3.502478 0.470523 -1.825879
-3.706760 0.523677 -1.821621
-3.949637 0.587573 -1.825530
-4.201674 0.654022 -1.821777
-4.504755 0.732992 -1.825624
-4.840565 0.821421 -1.828207
-5.230316 0.923089 -1.833443
0.001567 -0.431177 -0.015146
-5.545893 1.008619 -1.650507
-5.929356 1.109106 -1.610782
-6.434343 1.242515 -1.581694
-7.031893 1.399047 -1.550078
-7.767755 1.593248 -1.517042
-5.658458 1.019284 -0.967332
-9.903351 2.108707 -1.438725
-11.250268 2.458000 -1.356335
-11.426889 2.507344 -1.100624
-12.759839 2.852168 -0.919411
-11.568350 2.549666 -0.556795
-11.565372 2.550795 -0.276981
-18.190042 4.265001 0.009219
-18.177244 4.268062 0.445156
-8.382549 1.737504 0.399968
-8.379910 1.739752 0.601576
-8.376953 1.740359 0.803690
-8.380414 1.744179 1.008930
-18.105658 4.274493 2.638963
-15.514026 3.603516 2.640132
-18.102894 4.283074 3.534822
-0.438046 -0.315399 -0.283870
-0.454102 -0.311040 -0.279033
-3.312233 0.440577 -1.831290
-3.493934 0.489573 -1.824060
-3.704715 0.546335 -1.823298
-3.943714 0.610715 -1.825498
-4.195563 0.677876 -1.821745
-4.497990 0.759322 -1.825590
-4.831463 0.849208 -1.827489
-5.220614 0.953107 -1.832768
-5.274595 0.969243 -1.710679
-5.526365 1.037983 -1.647176
-5.905431 1.139663 -1.606709
-6.426485 1.280459 -1.582110
-7.043606 1.447202 -1.554991
-7.753712 1.639211 -1.516624
-8.451391 1.785771 -1.439194
-8.451605 1.788806 -1.231838
-8.445729 1.788643 -1.023453
-8.438395 1.789677 -0.817891
-8.424482 1.788952 -0.613054
-8.412110 1.787072 -0.409558
-8.416066 1.791069 -0.205927
-8.409596 1.792340 -0.003811
-8.402884 1.791928 0.198022
-8.377645 1.788212 0.400402
-8.380766 1.791979 0.602622
-8.373553 1.792994 0.804684
-8.375421 1.794874 1.009921
-18.097370 4.384222 2.641865
-15.514568 3.702555 2.644466
-18.107698 4.396299 3.541255
-0.427385 -0.315065 -0.277746
-0.450001 -0.308817 -0.277061
-3.303601 0.459709 -1.829388
-3.481529 0.508823 -1.820450
-3.700611 0.569181 -1.824120
-3.939437 0.634287 -1.826278
-4.187153 0.702667 -1.820943
-4.492655 0.786893 -1.826280
-4.814958 0.874952 -1.824046
-5.212320 0.984471 -1.832731
-5.279094 1.004446 -1.714793
-5.501123 1.065655 -1.642199
-5.903476 1.177134 -1.608684
-6.412793 1.316812 -1.581151
-7.002489 1.479897 -1.548334
-7.753057 1.687343 -1.518783
-8.422846 1.832198 -1.436568
-9.846689 2.216216 -1.434749
-11.281481 2.605775 -1.364006
-11.373055 2.634424 -1.098663
-11.432339 2.652276 -0.827678
-11.402102 2.648124 -0.550507
-18.189074 4.486726 -0.428000
-18.188803 4.489661 0.009481
-18.166286 4.489990 0.446471
-8.372055 1.840385 0.400837
-8.375538 1.842709 0.603241
-8.362508 1.842146 0.804924
-8.373550 1.848098 1.011382
-18.090336 4.494530 2.645049
-15.507641 3.796927 2.647489
-18.099575 4.509789 3.545452
-0.436675 -0.309443 -0.283838
-0.450990 -0.305355 -0.278023
-3.300137 0.479598 -1.830296
-3.477805 0.529736 -1.821316
-3.691313 0.589927 -1.822383
-3.931487 0.656881 -1.825436
-4.180571 0.727170 -1.820911
-4.485592 0.813145 -1.826247
-4.805555 0.902573 -1.823330
-5.200453 1.013852 -1.831418
-5.281815 1.038284 -1.718316
-5.503543 1.100814 -1.645453
-5.830740 1.193862 -1.591510
-6.412001 1.356748 -1.583402
-6.998905 1.522723 -1.549942
-7.752111 1.735533 -1.520942
-8.421107 1.884215 -1.438447
-9.842750 2.276445 -1.436346
-11.317464 2.685861 -1.370365
-11.236204 2.667452 -1.087243
-13.782227 3.371503 -0.996140
-13.939800 3.419893 -0.670605
-18.177807 4.596602 -0.428302
-18.179449 4.600074 0.009599
-18.164637 4.602409 0.447250
-8.370380 1.892197 0.401462
-8.371904 1.894013 0.604002
-8.366561 1.895475 0.806669
-8.369854 1.899372 1.012607
-18.088377 4.606492 2.649074
-15.502011 3.891921 2.650838
-18.091619 4.620198 3.549646
-0.434325 -0.306982 -0.282804
-0.446909 -0.303284 -0.276052
-3.286363 0.496591 -1.825585
-3.465330 0.548235 -1.817706
-3.683646 0.611091 -1.821499
-3.926737 0.681101 -1.826215
-4.172065 0.751143 -1.820110
-4.465808 0.835821 -1.821138
-4.801207 0.932487 -1.824658
-5.175642 1.039540 -1.825642
0.001547 -0.429537 -0.015089
-5.488829 1.132271 -1.643769
-5.901360 1.250597 -1.613141
-6.403172 1.395705 -1.583818
-7.009799 1.571059 -1.554857
-7.731556 1.779762 -1.519422
-8.417147 1.935760 -1.440005
-9.822719 2.334134 -1.435737
-11.211368 2.726633 -1.359753
-11.333193 2.764947 -1.098171
-12.394088 3.068350 -0.898734
-18.207111 4.711731 -0.872534
-18.185118 4.711960 -0.429043
-18.172380 4.714807 0.009725
-18.150747 4.711710 0.447734
-8.366485 1.943504 0.401991
-8.367559 1.946797 0.604764
-8.369850 1.950405 0.808416
-8.369672 1.951766 1.014301
-18.088623 4.722857 2.653663
-15.502660 3.991825 2.655496
-18.092440 4.733381 3.555703
-0.433593 -0.303985 -0.282788
-0.452861 -0.298281 -0.279945
-3.284204 0.517477 -1.827429
-3.464646 0.570664 -1.820362
-3.674143 0.631679 -1.819763
-3.911496 0.701580 -1.822129
-4.152580 0.772696 -1.814699
-4.460269 0.862425 -1.821831
-4.791482 0.960006 -1.823942
-5.158009 1.067088 -1.822418
0.001553 -0.429116 -0.015075
-5.472358 1.162128 -1.641536
-5.886009 1.283356 -1.611590
-6.351443 1.420989 -1.573689
-6.940278 1.593624 -1.542003
-7.713452 1.821658 -1.518274
-8.391604 1.982788 -1.438024
-9.806657 2.391061 -1.435682
-11.205815 2.797360 -1.361295
-11.495847 2.884954 -1.115507
0.001553 -0.429116 -0.015075
-18.201252 4.827288 -0.873617
-18.178263 4.823674 -0.429478
-18.165495 4.826479 0.009847
-18.152554 4.829210 0.448661
-8.364176 1.995422 0.402615
-8.363317 1.998146 0.605524
-8.364058 1.999770 0.809218
-8.365357 2.003119 1.015525
-18.083351 4.834574 2.657405
-15.490974 4.082630 2.657860
-18.079376 4.842871 3.559148
-0.434536 -0.300653 -0.283789
-0.450435 -0.295808 -0.278951
-3.277197 0.535699 -1.826465
-3.455595 0.589389 -1.818544
-3.674913 0.655289 -1.823147
-3.910194 0.726046 -1.824531
-4.154675 0.798888 -1.818510
-4.458113 0.890104 -1.823972
-4.781604 0.987461 -1.823226
-5.134772 1.092876 -1.817280
-5.294151 1.141949 -1.730665
-5.463120 1.194021 -1.641500
-5.883482 1.319841 -1.613567
-6.342567 1.458493 -1.574107
-6.931920 1.636292 -1.542786
-7.752718 1.883531 -1.528522
-8.364751 2.026139 -1.435725
-9.786454 2.446790 -1.435075
-11.208591 2.866471 -1.363758
-11.454234 2.942773 -1.113249
0.001558 -0.428695 -0.015060
-18.200371 4.937729 -0.874888
-18.178404 4.937745 -0.430089
-18.167534 4.941063 0.009982
-18.149759 4.938847 0.449434
-8.363488 2.047940 0.403334
-8.362591 2.050662 0.606567
-8.355236 2.051469 0.809833
-8.360729 2.054508 1.016748
-18.077400 4.946399 2.661147
-15.486609 4.181660 2.661863
-18.080708 4.956884 3.565577
-0.432111 -0.298138 -0.282755
-0.441298 -0.295239 -0.274048
-3.276488 0.557082 -1.829246
-3.446066 0.609268 -1.816724
-3.661503 0.675395 -1.819704
-3.896487 0.746847 -1.821257
-4.143789 0.822866 -1.816941
-4.435956 0.912622 -1.818139
-4.776984 1.016470 -1.824555
-5.129307 1.124812 -1.818520
-5.295706 1.177080 -1.734187
-5.433447 1.219730 -1.635427
-5.860053 1.351192 -1.610000
-6.335325 1.496536 -1.574984
-6.925539 1.678298 -1.543983
-7.743047 1.929693 -1.529212
-8.359496 2.078980 -1.437283
-9.769744 2.503512 -1.435021
-11.240236 2.948757 -1.369888
-11.264306 2.960027 -1.096887
0.001563 -0.428273 -0.015046
-18.233269 5.065630 -0.877875
-18.171125 5.053440 -0.430566
-18.224394 5.072591 0.010192
-18.270708 5.093131 0.453451
-8.360114 2.101420 0.403959
-8.353891 2.100948 0.607043
-8.352225 2.103457 0.811012
-8.355328 2.107402 1.017973
-18.074551 5.059488 2.665449
-15.484328 4.278667 2.666190
-18.074726 5.072528 3.570888
-0.423133 -0.297759 -0.277650
-0.442203 -0.291775 -0.275010
-3.272469 0.576855 -1.830156
-3.448590 0.632138 -1.821171
-3.651644 0.695807 -1.817968
-3.894712 0.771959 -1.823660
-4.132993 0.846036 -1.815374
-4.433520 0.940198 -1.820282
-4.764750 1.044085 -1.823158
-5.122103 1.155292 -1.819123
-5.297335 1.211344 -1.737711
-5.452986 1.261448 -1.644170
-5.858978 1.388169 -1.612483
-6.334960 1.537965 -1.577694
-6.912942 1.719751 -1.543940
-7.713924 1.971324 -1.526224
-8.346831 2.128055 -1.437557
-9.735144 2.556612 -1.432484
-11.195921 3.006267 -1.366847
-11.358843 3.060332 -1.107815
0.001547 -0.427875 -0.015032
-13.583777 3.750688 -0.658930
-18.410610 5.241982 -0.436693
-18.397839 5.244697 0.010570
-18.379988 5.242295 0.457171
0.001547 -0.427875 -0.015032
0.001547 -0.427875 -0.015032
0.001547 -0.427875 -0.015032
0.001547 -0.427875 -0.015032
-18.068132 5.175286 2.669473
-15.471180 4.375588 2.668884
-18.074623 5.186889 3.577315
-0.427290 -0.293292 -0.280687
-0.439711 -0.289239 -0.274016
-3.263094 0.595603 -1.828255
-3.432028 0.649764 -1.815773
-3.641669 0.716148 -1.816233
-3.887755 0.794773 -1.823630
-4.127148 0.871488 -1.816111
-4.420249 0.964435 -1.818076
-4.761593 1.073598 -1.825169
-5.105685 1.182889 -1.816537
-5.304214 1.247405 -1.743014
-5.437668 1.291504 -1.642487
-5.842890 1.420548 -1.610933
-6.308695 1.570127 -1.573986
-6.898975 1.758152 -1.543486
-7.698539 2.014185 -1.525813
-8.325859 2.176197 -1.436543
-9.734808 2.618373 -1.434912
-11.275843 3.104523 -1.378940
-11.269541 3.106630 -1.101161
-12.102936 3.370015 -0.885133
0.001553 -0.427453 -0.015017
-18.408194 5.357906 -0.437306
-18.395393 5.360578 0.010700
-18.374624 5.360685 0.457998
-18.356245 5.358027 0.908320
-18.096838 5.282854 1.337490
-18.125692 5.295058 1.784027
-18.076836 5.286192 2.227838
-18.060110 5.287433 2.673211
-15.464793 4.468897 2.672552
-18.083185 5.304386 3.585605
-0.429804 -0.289427 -0.282707
-0.442258 -0.285301 -0.275955
-3.262387 0.615837 -1.831038
-3.432771 0.671515 -1.819325
-3.642134 0.739075 -1.819618
-3.877394 0.815763 -1.821979
-4.116313 0.893809 -1.814544
-4.412418 0.989509 -1.818045
-4.747782 1.098846 -1.823093
-5.100226 1.212954 -1.817779
-5.311156 1.282674 -1.748319
-5.417018 1.318707 -1.639161
-5.826971 1.451769 -1.609385
-6.249294 1.590180 -1.562027
-6.882949 1.795854 -1.542620
-7.653001 2.047262 -1.519519
-8.337543 2.231440 -1.441000
-9.713901 2.671878 -1.434310
-11.291919 3.179326 -1.383240
-11.219287 3.160217 -1.098174
-11.914314 3.384457 -0.873031
-18.419163 5.471843 -0.891098
-18.406071 5.470789 -0.437922
-18.389448 5.472186 0.010821
-18.372465 5.473415 0.458867
-18.350260 5.469440 0.909746
-18.091248 5.392806 1.339563
-18.133261 5.409415 1.788067
-18.069227 5.395386 2.230974
-18.050501 5.395945 2.676666
-15.465365 4.564708 2.677528
-18.058353 5.408137 3.587179
-0.430661 -0.286009 -0.283709
-0.428165 -0.286650 -0.268120
-3.251311 0.633372 -1.828201
-3.414503 0.687796 -1.813033
-3.631719 0.759967 -1.817882
-3.864756 0.837456 -1.819516
-4.103400 0.916174 -1.812209
-4.400393 1.014936 -1.816562
-4.735070 1.126249 -1.821696
-5.095818 1.245381 -1.819657
-5.317261 1.319940 -1.753622
-5.415699 1.354254 -1.641868
-5.819396 1.487953 -1.610355
-6.255705 1.633746 -1.566573
-6.884134 1.843161 -1.545882
-7.678821 2.107942 -1.527561
-8.339005 2.285322 -1.443847
-9.700991 2.731732 -1.435083
-11.197297 3.220718 -1.374239
-11.414307 3.295573 -1.118991
-12.014783 3.495759 -0.881863
0.001560 -0.426607 -0.014988
-18.401150 5.590282 -0.438533
-18.386456 5.592181 0.010955
-18.372372 5.590764 0.459836
-18.354809 5.591726 0.911847
-18.088619 5.511057 1.342067
-18.125622 5.529847 1.790983
-18.064535 5.512873 2.234820
-18.043829 5.512682 2.680967
-15.458930 4.667555 2.681856
-18.053251 5.525477 3.593232
-0.429820 -0.283033 -0.283693
-0.432296 -0.282039 -0.271036
-3.239940 0.651388 -1.825364
-3.412940 0.710135 -1.815690
-3.626348 0.782472 -1.818707
-3.855673 0.859541 -1.818675
-4.095362 0.940919 -1.812178
-4.398852 1.043786 -1.819430
-4.724290 1.153293 -1.820982
-5.084020 1.275398 -1.818985
-5.319487 1.356123 -1.757738
-5.381672 1.377864 -1.634700
-5.800619 1.520383 -1.608303
-6.262209 1.676336 -1.571120
-6.859829 1.879440 -1.543363
-7.638024 2.143754 -1.522371
-8.373352 2.351957 -1.452483
-9.682645 2.787964 -1.435032
-11.162276 3.283113 -1.372576
-11.446841 3.381866 -1.124242
0.001543 -0.426208 -0.014974
-18.411501 5.708471 -0.893912
-18.393595 5.709250 -0.439102
-18.378038 5.707262 0.011077
-18.366699 5.710217 0.460709
-18.349096 5.711080 0.913467
-18.082499 5.625051 1.344283
-18.117453 5.643407 1.793705
-18.059097 5.630487 2.238665
-18.046862 5.629528 2.686670
-15.449887 4.763858 2.685525
-18.047388 5.642967 3.599285
-0.428988 -0.280134 -0.283677
-0.431468 -0.279137 -0.271020
-3.243725 0.673851 -1.830957
-3.404646 0.729618 -1.814768
-3.615915 0.802579 -1.816972
-3.848222 0.882128 -1.818647
-4.089180 0.965487 -1.812917
-4.385033 1.067700 -1.817225
-4.708008 1.178459 -1.818224
-5.074152 1.305054 -1.818951
-5.319999 1.390833 -1.761263
-5.369370 1.408629 -1.634117
-5.796636 1.556684 -1.610282
-6.250017 1.712766 -1.571082
-6.883460 1.932012 -1.551586
-7.623110 2.188107 -1.522328
-8.347870 2.397386 -1.450829
-5.665303 1.491311 -0.847510
-11.133211 3.345195 -1.371602
-11.226678 3.381000 -1.104959
0.001549 -0.425786 -0.014960
-18.404242 5.824458 -0.895185
-18.397715 5.829005 -0.439937
-18.378386 5.825657 0.011212
-18.363235 5.827260 0.461627
-18.334246 5.824164 0.914605
-18.073765 5.738544 1.346356
-18.112341 5.758367 1.796802
-18.055847 5.745752 2.242742
-18.034149 5.741494 2.690124
-15.447733 4.862766 2.690500
-18.038149 5.756153 3.604588
-0.434645 -0.274991 -0.287732
-0.455356 -0.267689 -0.285664
-3.227331 0.689459 -1.825311
-3.399651 0.750187 -1.815636
-3.612209 0.824979 -1.818651
-3.840642 0.904675 -1.818618
-4.077623 0.988213 -1.811350
-4.372848 1.092118 -1.815744
-4.695142 1.204730 -1.816829
-5.058738 1.332793 -1.817005
-5.325701 1.427493 -1.766568
-5.353289 1.438025 -1.632437
-5.786971 1.591071 -1.610750
-6.232081 1.747226 -1.569669
-6.832828 1.959131 -1.543283
-7.570812 2.219421 -1.514933
-8.333364 2.446454 -1.451105
-9.603810 2.885884 -1.428866
-11.090645 3.402545 -1.369024
-11.342002 3.493470 -1.118269
0.001554 -0.425366 -0.014946
-18.403826 5.943169 -0.896821
-18.387846 5.944432 -0.440467
-18.372330 5.942277 0.011337
-18.360922 5.945128 0.462593
-18.331913 5.941867 0.916412
-18.066229 5.852776 1.348571
-18.110260 5.874787 1.800276
-18.049995 5.860528 2.246583
-18.026379 5.855452 2.694421
-15.439358 4.959884 2.694495
-18.035606 5.872050 3.611382
-0.425655 -0.274922 -0.282627
0.001560 -0.424944 -0.014931
-3.225872 0.710194 -1.828095
-3.392838 0.770154 -1.815609
-3.603255 0.845568 -1.817770
-3.838106 0.929001 -1.821023
-4.053771 1.006534 -1.804407
-4.362286 1.117069 -1.814989
-4.691016 1.234023 -1.818842
-5.044967 1.361040 -1.815697
-5.325743 1.462383 -1.770093
-5.342479 1.469236 -1.632403
-5.782557 1.627378 -1.612730
-6.232314 1.788054 -1.572841
-6.855879 2.011948 -1.551508
-7.568427 2.268004 -1.517464
-8.352081 2.507236 -1.457170
-9.603287 2.948107 -1.431573
-11.062816 3.464774 -1.368282
-11.383133 3.581610 -1.124438
-11.938214 3.779085 -0.882858
-18.397022 6.060071 -0.898187
-18.381020 6.061296 -0.441084
-18.369289 6.060392 0.011467
-18.346537 6.059190 0.463264
-18.323179 6.057762 0.917932
-18.065510 5.969775 1.351352
-18.103703 5.990042 1.803372
-18.039701 5.974090 2.249953
-18.023487 5.971513 2.699559
-15.432254 5.057726 2.698815
-15.586734 5.118406 3.125481
-0.428030 -0.270895 -0.284647
0.001544 -0.424546 -0.014917
-3.207655 0.724983 -1.821513
-3.385904 0.790090 -1.815583
-3.590791 0.864867 -1.815184
-3.826568 0.950932 -1.819372
-4.059372 1.035263 -1.810524
-4.351596 1.141939 -1.814234
-4.674024 1.259690 -1.816085
-5.034610 1.390474 -1.815665
-5.329179 1.498609 -1.774805
-5.343827 1.505877 -1.636210
-5.747001 1.652493 -1.606145
-6.244726 1.834663 -1.579223
-6.856027 2.058328 -1.554773
-7.561582 2.316609 -1.519260
-8.325774 2.552372 -1.455518
-9.573779 3.002111 -1.430144
-11.030876 3.525495 -1.367081
-11.314870 3.631398 -1.119989
-12.234221 3.965485 -0.906193
-18.393208 6.178491 -0.899735
-18.375355 6.178955 -0.441747
-18.364368 6.181874 0.011599
-18.348394 6.179380 0.464377
-18.321255 6.176460 0.919833
-18.062885 6.090159 1.354137
-18.097155 6.109270 1.806658
-18.039894 6.091807 2.254732
-18.011265 6.088213 2.703575
-15.425399 5.159047 2.703464
0.001544 -0.424546 -0.014917
-0.433592 -0.265587 -0.288703
0.001549 -0.424124 -0.014903
-3.195815 0.742583 -1.818677
