ply
format ascii 1.0
element vertex 1638
property float x
property float y
property float z
end_header
-5.863030 1.445070 -1.622738
-6.285915 1.582543 -1.575041
-6.888183 1.777827 -1.548454
-7.589539 2.005353 -1.512467
-8.472705 2.247787 -1.470333
-9.736773 2.650776 -1.445273
-11.121642 3.090772 -1.371634
-11.276639 3.143828 -1.113089
-11.338622 3.167460 -0.841280
-11.242903 3.138892 -0.559594
-11.384234 3.187775 -0.286801
-18.195671 5.359009 -0.006894
-18.174541 5.355184 0.435917
-18.157713 5.356207 0.881822
-18.144464 5.358387 1.324898
-18.125177 5.358644 1.768274
-18.127003 5.362104 2.218562
-18.104868 5.361409 2.664681
-15.518655 4.539542 2.669395
-18.124666 5.376998 3.579161
-0.434349 -0.289656 -0.283951
-0.443532 -0.286557 -0.275173
-3.253892 0.622727 -1.830312
-3.430841 0.681166 -1.822485
-3.641489 0.750655 -1.823803
-3.880202 0.828649 -1.827945
-4.117197 0.906940 -1.819813
-4.407425 1.002738 -1.821303
-4.726571 1.107216 -1.820543
-5.134078 1.241543 -1.835808
-5.219870 1.271287 -1.724525
-5.438771 1.343493 -1.651701
-5.840778 1.476631 -1.619647
-6.287176 1.623358 -1.578206
-6.882792 1.820314 -1.550053
-7.663201 2.078163 -1.529771
-8.413470 2.284491 -1.462817
-9.713219 2.705391 -1.444359
-11.166717 3.178503 -1.379634
-11.520503 3.296906 -1.138902
-0.000477 -0.429828 -0.013769
-11.265255 3.220104 -0.561626
-11.271284 3.226052 -0.284513
-18.184855 5.471524 -0.006745
-18.164614 5.471364 0.436674
-18.153433 5.474160 0.883469
-18.143057 5.473708 1.327422
-18.123726 5.473821 1.771585
-18.126297 5.481055 2.222900
-18.105078 5.477059 2.669844
-15.508523 4.635367 2.672766
-18.110411 5.491578 3.583386
-0.433557 -0.286763 -0.283935
-0.439380 -0.284675 -0.273198
-3.251127 0.642985 -1.832152
-3.427800 0.702433 -1.824241
-3.632935 0.771444 -1.822909
-3.870949 0.851484 -1.827091
-4.105931 0.929889 -1.818231
-4.400884 1.029095 -1.821986
-4.713811 1.134464 -1.819129
-5.109991 1.266720 -1.830642
-5.224495 1.306548 -1.729236
-5.431807 1.377367 -1.652750
-5.807677 1.503322 -1.613524
-6.274882 1.661052 -1.578147
-6.865629 1.860279 -1.549160
-7.644457 2.122768 -1.528963
-8.403334 2.335164 -1.463716
-9.696334 2.764005 -1.444553
-11.225000 3.269284 -1.389254
-11.385391 3.326168 -1.127706
-0.000472 -0.429406 -0.013755
-11.247843 3.286593 -0.561719
-11.610728 3.410612 -0.293099
-18.187506 5.592293 -0.006587
-18.168272 5.588877 0.437758
-18.155159 5.590968 0.885393
-18.143684 5.593603 1.330231
-18.118593 5.591723 1.774713
-18.120213 5.595166 2.226535
-18.092236 5.592306 2.673337
-15.506260 4.737072 2.677765
-18.098356 5.603651 3.587978
-0.432695 -0.283769 -0.283918
-0.431911 -0.283888 -0.269265
-3.244733 0.662657 -1.832116
-3.419323 0.722614 -1.823306
-3.627457 0.793983 -1.823724
-3.870456 0.876495 -1.830302
-4.099564 0.955223 -1.818958
-4.385108 1.053205 -1.819034
-4.706519 1.162602 -1.819766
-5.107039 1.299844 -1.833150
-5.224961 1.341613 -1.732755
-5.417677 1.407801 -1.651597
-5.814444 1.544379 -1.618526
-6.236961 1.688793 -1.571645
-6.833801 1.893911 -1.544948
-7.584981 2.151968 -1.520027
-8.416721 2.395445 -1.468818
-9.674054 2.818929 -1.443918
-11.133199 3.312813 -1.380605
-11.342161 3.387077 -1.125576
-11.317628 3.380653 -0.844192
-11.689438 3.509998 -0.584265
-18.180899 5.703971 -0.451901
-18.167681 5.702471 -0.006441
-18.154972 5.704669 0.438468
-0.000467 -0.428985 -0.013742
-0.000467 -0.428985 -0.013742
-0.000467 -0.428985 -0.013742
-0.000467 -0.428985 -0.013742
-18.094744 5.709544 2.679058
-15.502383 4.835595 2.682437
-18.095701 5.722741 3.594800
-0.433477 -0.280305 -0.284921
-0.449208 -0.274760 -0.280018
-3.231708 0.679461 -1.828327
-3.407584 0.740948 -1.820579
-3.618888 0.814033 -1.822832
-3.849060 0.894425 -1.823759
-4.082803 0.976226 -1.815065
-4.371503 1.076249 -1.816811
-4.700850 1.191310 -1.821087
-5.088351 1.325671 -1.829905
-5.225840 1.374908 -1.736276
-5.407023 1.439382 -1.651546
-5.801498 1.576616 -1.617968
-6.252250 1.734648 -1.578494
-6.835527 1.937567 -1.548209
-7.587188 2.200479 -1.523289
-8.400334 2.444275 -1.468746
-9.647683 2.872457 -1.442726
-11.188540 3.403664 -1.389994
-11.303050 3.446933 -1.123818
-0.000463 -0.428564 -0.013728
-18.238426 5.834500 -0.905517
-11.533594 3.533863 -0.292135
-18.167999 5.819774 -0.006287
-18.155272 5.821895 0.439503
-0.000463 -0.428564 -0.013728
-0.000463 -0.428564 -0.013728
-0.000463 -0.428564 -0.013728
-0.000463 -0.428564 -0.013728
-18.089022 5.824416 2.683662
-15.495114 4.930232 2.686454
-18.092600 5.835058 3.601243
-0.435892 -0.276338 -0.286944
-0.451640 -0.270693 -0.281959
-3.220478 0.696158 -1.825477
-3.401018 0.760366 -1.820543
-3.606550 0.833489 -1.820228
-3.841388 0.916983 -1.823719
-4.071415 0.998204 -1.813484
-4.371556 1.104908 -1.820400
-4.691463 1.218759 -1.821041
-5.071030 1.352842 -1.827298
-5.235180 1.412367 -1.742771
-5.394384 1.470255 -1.650945
-5.791698 1.611041 -1.618420
-6.228684 1.767151 -1.575675
-6.777102 1.962870 -1.538186
-7.560343 2.241938 -1.521004
-8.350612 2.479878 -1.462854
-9.636016 2.930971 -1.443757
-11.226988 3.487445 -1.397303
-11.249270 3.499254 -1.120584
-11.384120 3.550434 -0.852194
-18.418173 6.011834 -0.915914
-18.179996 5.935073 -0.453316
-18.258186 5.969011 -0.006095
-18.301210 5.987104 0.444170
-8.392930 2.516812 0.404573
-8.391877 2.519437 0.611746
-8.386235 2.520489 0.819139
-8.395116 2.524989 1.030515
-18.084461 5.940071 2.688546
-15.494665 5.033647 2.692103
-18.091433 5.951968 3.608431
-0.428503 -0.275648 -0.282849
-0.000475 -0.427743 -0.013701
-3.210446 0.714466 -1.823564
-3.392237 0.780337 -1.819608
-3.592205 0.852848 -1.816769
-3.833586 0.939501 -1.823679
-4.066371 1.023990 -1.814982
-4.353623 1.128097 -1.816722
-4.674819 1.243647 -1.818262
-5.062161 1.383959 -1.827888
-5.234971 1.447670 -1.746290
-5.379748 1.500409 -1.649793
-5.761306 1.639238 -1.613308
-6.219632 1.804695 -1.576539
-6.789004 2.011539 -1.543936
-7.580002 2.298479 -1.527959
-5.638103 1.573207 -0.994094
-9.601583 2.981527 -1.441456
-11.108101 3.520475 -1.385420
-11.220151 3.564343 -1.119935
-13.349684 4.324259 -0.998863
-18.430462 6.139519 -0.918263
-18.418756 6.142000 -0.459879
-18.409399 6.141699 -0.005875
-18.387089 6.140391 0.447431
-8.388484 2.571672 0.405304
-8.387907 2.572837 0.612800
-8.378484 2.572508 0.820143
-8.390525 2.579859 1.032220
-18.075418 6.054569 2.692871
-15.488938 5.132541 2.696774
-18.084658 6.070931 3.614883
-0.435716 -0.269846 -0.287930
-3.075084 0.686214 -1.849259
-3.198854 0.731534 -1.820714
-3.388595 0.801487 -1.821365
-3.591592 0.876384 -1.820151
-3.827135 0.963264 -1.824451
-4.054501 1.046520 -1.813400
-4.342858 1.152913 -1.815952
-4.666598 1.272413 -1.818898
-5.048098 1.412196 -1.826560
-5.236652 1.482780 -1.750406
-5.362803 1.530733 -1.648090
-5.734764 1.667498 -1.609209
-6.213600 1.844646 -1.578323
-6.779946 2.054197 -1.545119
-7.532310 2.332344 -1.521610
-8.308639 2.575458 -1.461416
-9.586788 3.040868 -1.442207
-11.087054 3.585472 -1.385561
-11.269999 3.655766 -1.127059
-11.935176 3.901083 -0.896254
-18.428007 6.258930 -0.919877
-18.418192 6.262042 -0.460650
-18.402058 6.262836 -0.005717
-18.379021 6.257524 0.448327
-8.382332 2.624446 0.405939
-8.383057 2.627765 0.613855
-8.382985 2.630764 0.822455
-8.384254 2.632630 1.033690
-18.066387 6.172991 2.697480
-15.481598 5.234251 2.701449
-18.080122 6.187551 3.621701
-0.431540 -0.268032 -0.285874
-3.045531 0.696400 -1.835518
-3.188618 0.749686 -1.818801
-3.369504 0.817662 -1.815050
-3.578713 0.896209 -1.817547
-3.813930 0.983796 -1.821973
-4.045679 1.070983 -1.813358
-4.336906 1.180368 -1.817361
-4.653235 1.298350 -1.817486
-5.035348 1.441852 -1.825872
-5.248505 1.522879 -1.758089
-5.328018 1.553291 -1.640883
-5.740391 1.708638 -1.614212
-6.193127 1.878090 -1.576425
-6.767374 2.094311 -1.545474
-7.529194 2.380897 -1.524131
-8.275869 2.619662 -1.458756
-8.451505 2.685712 -1.275608
-8.447940 2.687450 -1.061184
-8.433846 2.685326 -0.848596
-0.000466 -0.426901 -0.013674
-0.000466 -0.426901 -0.013674
-8.416716 2.686540 -0.218305
-8.416565 2.687891 -0.009963
-8.405725 2.686935 0.198144
-8.379056 2.680103 0.406764
-8.382154 2.682654 0.615190
-8.380151 2.684961 0.824019
-8.380849 2.688265 1.035628
-18.065168 6.291159 2.703202
-15.476440 5.334075 2.706445
-18.064474 6.304041 3.626667
-0.443512 -0.260305 -0.294014
-3.042290 0.715559 -1.837442
-3.185107 0.769687 -1.820642
-3.360631 0.836819 -1.814117
-3.574432 0.918482 -1.819218
-3.814305 1.009370 -1.825997
-4.040462 1.095962 -1.814857
-4.327600 1.205722 -1.817318
-4.643230 1.325537 -1.817441
-5.019190 1.469231 -1.823905
-0.000462 -0.426479 -0.013660
-5.285971 1.572785 -1.631475
-5.729809 1.742770 -1.614664
-6.176119 1.912753 -1.575449
-6.738131 2.128092 -1.542094
-7.500055 2.419733 -1.521480
-8.245267 2.662831 -1.456422
-9.510992 3.138669 -1.436775
-11.013358 3.705887 -1.382143
-11.432161 3.867214 -1.147773
-12.291693 4.192089 -0.926294
-13.666203 4.713566 -0.688401
-18.404234 6.502409 -0.461962
-18.404261 6.505485 -0.005401
-8.397013 2.739226 0.198452
-8.379704 2.735783 0.407775
-8.379037 2.736924 0.616384
-8.369531 2.736407 0.824837
-8.372048 2.740410 1.036865
-18.055809 6.406706 2.707806
-15.470683 5.433997 2.711441
-18.062136 6.422318 3.634228
-0.442586 -0.257416 -0.293997
-3.017953 0.726111 -1.826640
-3.173432 0.785994 -1.817792
-3.355199 0.856634 -1.814977
-3.563509 0.937543 -1.817472
-3.797462 1.028457 -1.821893
-4.026745 1.116935 -1.812506
-4.306237 1.225630 -1.812188
-4.633079 1.352667 -1.817395
-5.017380 1.501052 -1.827055
-0.000462 -0.426054 -0.013646
-5.285136 1.607771 -1.634728
-5.714013 1.773756 -1.613601
-6.177080 1.954309 -1.579075
-6.734255 2.171516 -1.544524
-7.498230 2.468954 -1.524371
-8.203926 2.700107 -1.452149
-9.440348 3.174745 -1.429204
-10.980839 3.764205 -1.380901
-11.320583 3.898007 -1.138992
-12.188498 4.233998 -0.920511
-13.745515 4.831629 -0.693651
-18.406321 6.621243 -0.462829
-18.392048 6.622519 -0.005249
-18.372799 6.618242 0.451582
-8.374983 2.787947 0.408503
-8.373721 2.790547 0.617437
-8.366043 2.790692 0.826401
-8.369053 2.793250 1.038800
-18.051249 6.524523 2.713248
-15.466118 5.534775 2.716761
-18.060263 6.537640 3.641784
-0.444772 -0.253118 -0.296019
-3.011073 0.744415 -1.826605
-3.167857 0.805842 -1.818695
-3.337550 0.873038 -1.809560
-3.555361 0.959084 -1.817433
-3.785621 1.049396 -1.820228
-4.015802 1.140553 -1.811694
-4.303316 1.254276 -1.815051
-4.617516 1.377683 -1.815300
-4.991760 1.525672 -1.821891
-5.279865 1.640257 -1.779953
-5.271571 1.637871 -1.634128
-5.713469 1.812991 -1.617087
-6.188652 2.000198 -1.585463
-6.722847 2.212090 -1.545294
-7.490582 2.516104 -1.526153
-8.192593 2.752008 -1.453371
-9.406530 3.224458 -1.427183
-10.950232 3.827546 -1.380116
-11.263188 3.953241 -1.135755
-11.562711 4.071638 -0.875768
-13.626574 4.879447 -0.689202
-18.397722 6.743813 -0.463505
-18.392145 6.744719 -0.005090
-18.364212 6.740619 0.452576
-8.370630 2.843833 0.409328
-8.373632 2.846397 0.618912
-8.371481 2.848664 0.828898
-8.372003 2.851943 1.041670
-18.044096 6.641781 2.718411
-15.459068 5.634973 2.721758
-18.051531 6.658012 3.648606
-0.448574 -0.248249 -0.299061
-2.999424 0.760233 -1.823633
-3.162364 0.825131 -1.819597
-3.333363 0.893956 -1.811318
-3.549021 0.980614 -1.818249
-3.778773 1.072262 -1.821002
-4.005014 1.163386 -1.810883
-4.283192 1.275318 -1.810648
-4.608817 1.405347 -1.815938
-4.961070 1.547110 -1.814810
-5.283864 1.677392 -1.785257
-5.263168 1.670047 -1.635179
-5.632204 1.819031 -1.597820
-6.138434 2.021793 -1.576202
-6.727533 2.259162 -1.549799
-7.457100 2.553042 -1.522763
-8.212726 2.814756 -1.460092
-9.348519 3.264436 -1.421555
-10.921888 3.889473 -1.379566
-11.258163 4.026501 -1.137698
-11.890973 4.278765 -0.902156
-13.894854 5.076683 -0.703954
-18.397018 6.866276 -0.464368
-18.391439 6.867160 -0.004932
-18.359797 6.861432 0.453662
-8.368375 2.899032 0.410245
-8.369470 2.900884 0.620106
-8.358029 2.899445 0.829529
-8.369589 2.907133 1.043840
-18.038033 6.759923 2.723852
-15.458713 5.738210 2.728054
-18.050549 6.778316 3.656909
-0.479495 -0.232440 -0.319433
-2.990938 0.777252 -1.822621
-3.150197 0.841768 -1.816747
-3.324047 0.912894 -1.810384
-3.532481 0.998077 -1.813937
-3.773492 1.095775 -1.822587
-3.994104 1.186142 -1.810072
-4.283721 1.304540 -1.814965
-4.594722 1.430868 -1.814527
-4.940853 1.572514 -1.811565
-5.291145 1.716083 -1.791751
-5.277767 1.711551 -1.643386
-5.674786 1.874376 -1.613442
-6.142272 2.064845 -1.580748
-6.706534 2.296068 -1.548495
-7.438011 2.595614 -1.522329
-8.212253 2.869769 -1.463256
-9.283007 3.300923 -1.414819
-10.893168 3.951248 -1.379016
-11.402321 4.160039 -1.154618
-12.128388 4.454065 -0.921884
-18.401621 6.984540 -0.929835
-18.382549 6.983725 -0.464912
-18.373247 6.983099 -0.004781
-18.350889 6.980941 0.454652
-8.363908 2.953571 0.411068
-8.364967 2.955424 0.621300
-8.362738 2.957642 0.832026
-8.363135 2.960914 1.045543
-18.023857 6.875262 2.728178
-15.448541 5.837931 2.732725
-18.037889 6.894372 3.662984
-0.537329 -0.205208 -0.357134
-2.972693 0.790235 -1.815735
-3.139593 0.858965 -1.814836
-3.321278 0.934445 -1.813038
-3.532615 1.022228 -1.818174
-3.757935 1.115108 -1.819298
-3.979654 1.207424 -1.807721
-4.261638 1.324640 -1.809836
-4.570067 1.451992 -1.809016
-4.927526 1.600629 -1.810879
-5.291097 1.752023 -1.795866
-5.270728 1.744513 -1.644988
-5.665040 1.908906 -1.614401
-6.129644 2.101330 -1.581153
-6.672678 2.327598 -1.544286
-7.378723 2.621555 -1.513769
-8.169411 2.907716 -1.458984
-9.288917 3.365958 -1.418904
-10.867791 4.014327 -1.378928
-11.438401 4.251672 -1.160813
-0.000465 -0.424391 -0.013592
-18.393782 7.105186 -0.931449
-18.382132 7.107318 -0.465820
-18.374685 7.107415 -0.004620
-18.354179 7.105886 0.455974
-8.379427 3.016511 0.412926
-8.354589 3.007745 0.622073
-8.348639 3.008432 0.832657
-8.350833 3.012465 1.046546
-18.021805 6.995928 2.734457
-15.443211 5.940002 2.738371
-15.588219 6.005574 3.171283
-0.547187 -0.197088 -0.364253
-2.962440 0.806409 -1.813743
-3.127268 0.875405 -1.811987
-3.310112 0.952586 -1.811209
-3.512551 1.038099 -1.812153
-3.748739 1.137801 -1.819258
-3.968495 1.230023 -1.806910
-4.249779 1.348858 -1.809067
-4.557122 1.478775 -1.808287
-4.926301 1.633756 -1.814668
-5.290836 1.788011 -1.799981
-5.273736 1.782846 -1.649890
-5.664023 1.947127 -1.617889
-6.114568 2.138062 -1.581097
-6.690528 2.381927 -1.552109
-7.380469 2.674061 -1.517767
-8.150084 2.955132 -1.458914
-9.322989 3.444950 -1.427426
-10.840239 4.076475 -1.378610
-11.227396 4.241459 -1.142234
-0.000482 -0.423992 -0.013579
-18.390697 7.228291 -0.933340
-18.375383 7.228838 -0.466591
-18.364767 7.231323 -0.004461
-18.343727 7.225723 0.456964
-0.000482 -0.423992 -0.013579
-0.000482 -0.423992 -0.013579
-0.000482 -0.423992 -0.013579
-0.000482 -0.423992 -0.013579
-18.023104 7.122268 2.741579
-15.437931 6.045651 2.744345
-0.000482 -0.423992 -0.013579
-0.552170 -0.190752 -0.368313
-2.956695 0.825070 -1.814687
-3.129281 0.898474 -1.817580
-3.303530 0.973327 -1.812068
-3.510491 1.062143 -1.815534
-3.734646 1.157639 -1.816781
-3.960328 1.254670 -1.807639
-4.237489 1.373722 -1.808297
-4.542646 1.503926 -1.806877
-4.910516 1.661893 -1.813341
-5.289918 1.825021 -1.804094
-5.262723 1.814345 -1.650391
-5.658762 1.984902 -1.620363
-6.087196 2.168299 -1.577820
-6.623867 2.399352 -1.540433
-7.367932 2.719249 -1.518811
-8.142632 3.009211 -1.461107
-9.296910 3.497454 -1.426794
-10.813343 4.141142 -1.378520
-11.342624 4.368849 -1.156561
-12.085523 4.684859 -0.924920
-18.379938 7.352480 -0.934950
-18.372009 7.356071 -0.467495
-18.360880 7.354544 -0.004302
-18.331146 7.348897 0.457959
-18.313492 7.348341 0.923448
-18.048660 7.239081 1.366697
-18.083330 7.260647 1.828720
-18.028950 7.244383 2.286761
-18.013941 7.241098 2.747021
-15.433060 6.148801 2.750317
-18.012190 7.253984 3.684927
-0.549236 -0.187835 -0.367276
-2.951075 0.843172 -1.815633
-3.110276 0.911999 -1.810979
-3.287243 0.989200 -1.807550
-3.491921 1.078463 -1.810367
-3.723527 1.179467 -1.815928
-3.947210 1.276412 -1.806058
-4.220243 1.395550 -1.805348
-4.532855 1.532017 -1.807514
-4.898436 1.690553 -1.813294
-5.301433 1.866463 -1.812372
-5.270545 1.855097 -1.656945
-5.634143 2.013265 -1.617278
-6.055630 2.197842 -1.573622
-6.598042 2.435122 -1.538298
-7.354568 2.765678 -1.519854
-8.099149 3.046362 -1.456835
-9.207958 3.524860 -1.416728
-10.779593 4.200609 -1.377509
-11.333139 4.442365 -1.158319
-0.000473 -0.423149 -0.013552
-18.377064 7.476771 -0.936933
-18.370966 7.481144 -0.468449
-18.352982 7.480376 -0.004140
-18.330137 7.473747 0.459233
-18.308765 7.471514 0.925657
-18.046827 7.365427 1.370208
-18.084923 7.388764 1.833715
-18.028248 7.367398 2.292494
-18.009941 7.366338 2.753584
-15.419134 6.251640 2.754991
-18.010920 7.376763 3.693973
-0.549407 -0.183475 -0.368278
-2.938722 0.858986 -1.812662
-3.107166 0.932965 -1.813758
-3.280446 1.009818 -1.808410
-3.484879 1.099693 -1.811185
-3.715926 1.202026 -1.816702
-3.942137 1.302440 -1.808327
-4.211409 1.420995 -1.806032
-4.526714 1.560748 -1.809520
-4.882727 1.717615 -1.811969
-5.239212 1.875886 -1.795667
-5.273194 1.892784 -1.661849
-5.632430 2.051533 -1.620765
-6.036896 2.231507 -1.572648
-6.608858 2.484147 -1.544465
-7.351063 2.813433 -1.522747
-8.080241 3.095556 -1.457088
-9.117897 3.548965 -1.406388
-10.750151 4.264113 -1.377189
-11.274860 4.497211 -1.155269
-12.043278 4.834615 -0.926113
-18.366491 7.602083 -0.938635
-13.600157 5.521871 -0.351048
-18.338303 7.599991 -0.003986
-18.326920 7.602026 0.460512
-18.306921 7.596463 0.928053
-18.043686 7.488073 1.373574
-18.077469 7.506052 1.837581
-18.023067 7.489088 2.297761
-18.006456 7.488672 2.760144
-15.414120 6.352352 2.760959
-18.007048 7.498976 3.702646
-0.544929 -0.181401 -0.366222
-2.928353 0.874366 -1.810672
-3.091489 0.947127 -1.809033
-3.267511 1.026348 -1.805685
-3.477735 1.120866 -1.812003
-3.708198 1.224546 -1.817476
-3.930779 1.324079 -1.807518
-4.199028 1.444876 -1.805264
-4.511788 1.585675 -1.808109
-4.859944 1.741488 -1.808086
-5.239861 1.912644 -1.800377
-5.280840 1.932940 -1.668404
-5.614566 2.082763 -1.619702
-6.035733 2.272996 -1.576274
-6.586138 2.521336 -1.543161
-7.329935 2.856618 -1.522313
-8.058678 3.140235 -1.456698
-9.069522 3.590604 -1.402430
-10.718360 4.322084 -1.376412
-11.447516 4.649227 -1.175513
-12.080280 4.934235 -0.931144
-18.368876 7.726005 -0.940898
-18.353649 7.726299 -0.470037
-18.333832 7.724561 -0.003826
-18.318365 7.720898 0.461593
-18.298758 7.719230 0.930167
-18.032438 7.607697 1.376379
-18.079214 7.635464 1.842763
-18.022549 7.613384 2.303728
-18.000353 7.610422 2.766423
-15.409669 6.460200 2.767584
-18.002382 7.621396 3.711321
-0.551328 -0.174219 -0.371301
-2.917436 0.890703 -1.808680
-3.083310 0.965870 -1.808998
-3.265392 1.049059 -1.809235
-3.465237 1.140397 -1.810255
-3.695332 1.244785 -1.815813
-3.908574 1.342479 -1.802087
-4.194680 1.473241 -1.808127
-4.505297 1.614364 -1.810115
-4.843574 1.769142 -1.806760
-5.239840 1.950410 -1.805086
-0.000481 -0.421907 -0.013511
-5.589042 2.111651 -1.616616
-0.000481 -0.421907 -0.013511
-6.569083 2.559634 -1.543103
-7.321672 2.904073 -1.524466
-5.761717 2.166130 -1.048004
-9.066143 3.652113 -1.405406
-10.686410 4.384378 -1.375862
-11.415414 4.716659 -1.175234
-0.000481 -0.421907 -0.013511
-0.000481 -0.421907 -0.013511
-0.000481 -0.421907 -0.013511
-18.332190 7.850988 -0.003664
-18.311617 7.848806 0.462825
-18.299269 7.850300 0.932850
-18.031342 7.732369 1.380026
-18.070593 7.757108 1.846821
-18.012524 7.737815 2.308766
-17.991659 7.731531 2.772424
-15.412872 6.568828 2.775506
-17.988302 7.743925 3.718514
-0.545206 -0.172786 -0.368226
-2.909846 0.907890 -1.808647
-3.078488 0.985490 -1.810840
-3.258507 1.068994 -1.810096
-3.456180 1.160755 -1.810218
-3.677369 1.262655 -1.811711
-3.898359 1.365373 -1.802047
-4.180332 1.496215 -1.806633
-4.498626 1.643048 -1.812120
-4.832624 1.798190 -1.807354
-5.219164 1.977769 -1.802657
-5.281341 2.007283 -1.677111
-5.551522 2.133689 -1.609993
-6.000766 2.341543 -1.575245
-6.530499 2.587995 -1.538067
-7.261361 2.927656 -1.515909
-8.041626 3.246517 -1.461086
-9.046132 3.706328 -1.405886
-10.656761 4.445424 -1.375545
-11.474384 4.823300 -1.184199
-11.705716 4.931119 -0.907128
-18.345034 7.974299 -0.944307
-18.318941 7.969469 -0.471303
-16.282400 7.039534 -0.004619
-18.232784 7.940369 0.462156
-0.000476 -0.421485 -0.013497
-18.020323 7.853151 1.382971
-18.003269 7.852315 1.844902
-18.006735 7.860909 2.314267
-17.994770 7.858595 2.780380
-15.408207 6.674381 2.782128
-17.989141 7.870013 3.728673
-0.545374 -0.168599 -0.369228
-2.907119 0.926760 -1.811550
-3.070361 1.003603 -1.810806
-3.243657 1.084580 -1.806475
-3.444030 1.178922 -1.808473
-3.669281 1.284995 -1.812485
-3.893053 1.390536 -1.804317
-4.162796 1.516824 -1.803685
-4.478168 1.665360 -1.808660
-4.814609 1.824016 -1.805389
-5.208742 2.009814 -1.803798
-0.000476 -0.421060 -0.013483
-5.540223 2.167687 -1.610953
-6.003670 2.386593 -1.580252
-6.565686 2.652008 -1.550452
-7.272224 2.984011 -1.522124
-8.042527 3.301732 -1.464900
-9.049182 3.771263 -1.409972
-10.618616 4.500264 -1.374077
-11.549691 4.936336 -1.194828
-11.490102 4.913184 -0.892906
-13.701563 5.945235 -0.710438
-0.000476 -0.421060 -0.013483
-0.000476 -0.421060 -0.013483
-18.052011 7.984040 0.458830
-18.039795 7.985406 0.924648
-18.021183 7.979979 1.386900
-18.002232 7.978168 1.849893
-18.003710 7.985917 2.320234
-17.979382 7.981589 2.785827
-17.951984 7.971995 3.252537
-17.976667 7.990560 3.736234
-0.542269 -0.165594 -0.368191
-2.887812 0.939689 -1.804664
-3.061866 1.022209 -1.810771
-3.229559 1.102492 -1.803748
-3.431222 1.198193 -1.806726
-3.660756 1.307933 -1.813259
-3.877224 1.411668 -1.801967
-4.147874 1.540303 -1.802190
-4.465725 1.692305 -1.808616
-4.806764 1.854537 -1.807261
-5.187761 2.036918 -1.801371
-5.296036 2.090303 -1.690769
-5.570704 2.221511 -1.624046
-6.001490 2.428199 -1.583879
-6.543139 2.686512 -1.549152
-7.232990 3.016953 -1.518000
-8.035727 3.358757 -1.467738
-8.961443 3.795767 -1.400188
-10.586571 4.564598 -1.373756
-11.320412 4.914649 -1.174592
-11.359001 4.934878 -0.885196
-13.771976 6.077978 -0.715859
-16.094704 7.176958 -0.417632
-15.993330 7.135401 -0.004482
-16.107515 7.195676 0.409253
-18.034420 8.110072 0.927043
-18.016088 8.108513 1.390552
-17.996731 8.102583 1.854510
-17.996264 8.109441 2.325735
-17.970028 8.104093 2.792107
-17.944338 8.095112 3.260151
-17.975821 8.117137 3.746393
-0.542388 -0.161412 -0.369194
-2.894332 0.962990 -1.813441
-3.047388 1.036662 -1.806985
-3.222622 1.121694 -1.804610
-3.423481 1.219126 -1.807544
-3.649414 1.327968 -1.812409
-3.865279 1.432906 -1.801158
-4.138212 1.565369 -1.802875
-4.450465 1.716011 -1.807207
-4.786762 1.879311 -1.804659
-5.175260 2.067991 -1.801917
-5.301005 2.129418 -1.696774
-5.564117 2.258166 -1.626522
-5.985499 2.462082 -1.583827
-6.549822 2.736447 -1.554902
-7.250243 3.076917 -1.525693
-8.034100 3.413336 -1.471228
-9.021775 3.886266 -1.413152
-10.565743 4.627481 -1.374598
-11.364107 5.013421 -1.182080
-11.697898 5.175138 -0.913499
-13.740868 6.157801 -0.716033
-0.000467 -0.420217 -0.013456
-16.003193 7.250071 -0.004335
-18.031509 8.229423 0.461139
-18.024607 8.233232 0.929250
-18.009548 8.229258 1.393914
-17.992203 8.228067 1.859315
-17.984406 8.231449 2.330769
-17.966745 8.226187 2.799221
-17.902077 8.202165 3.261587
-17.961739 8.237995 3.753953
-0.537787 -0.159373 -0.367138
-2.876917 0.975480 -1.807535
-3.043724 1.056917 -1.809765
-3.208881 1.138292 -1.801886
-3.412364 1.238442 -1.806652
-3.643923 1.352399 -1.814808
-3.849591 1.453110 -1.798809
-4.123372 1.587949 -1.801381
-4.436048 1.741956 -1.806480
-4.781960 1.911415 -1.807809
-5.164289 2.099841 -1.803058
-5.304812 2.170511 -1.702777
-5.529479 2.281241 -1.620911
-5.963051 2.495401 -1.582391
-5.782338 2.409337 -1.378138
-7.227621 3.119415 -1.525260
-7.987021 3.447919 -1.466635
-8.974688 3.929765 -1.409748
-10.529358 4.685192 -1.373590
-11.295021 5.060923 -1.178111
-0.000463 -0.419796 -0.013442
-13.602134 6.188342 -0.710768
-16.090643 7.403759 -0.419523
-18.048903 8.363093 -0.003001
-18.031742 8.358032 0.462602
-18.021152 8.360062 0.931833
-18.002728 8.358241 1.397566
-17.987087 8.357789 1.864310
-17.987823 8.361428 2.337903
-17.959576 8.354804 2.806343
-17.816900 8.292174 3.255544
-17.966286 8.368470 3.765599
-0.543963 -0.151982 -0.372217
-2.879555 0.998330 -1.814353
-3.030173 1.073016 -1.806916
-3.204400 1.160093 -1.804539
-3.396294 1.255270 -1.803197
-3.628744 1.371350 -1.812332
-3.840066 1.477161 -1.799539
-4.111753 1.612075 -1.801340
-4.423529 1.767889 -1.806437
-4.765082 1.937636 -1.806485
-5.149690 2.129968 -1.803010
-5.305310 2.209128 -1.707680
-5.499976 2.306577 -1.616817
-5.942688 2.528376 -1.581418
-6.523570 2.817718 -1.557276
-7.207756 3.160132 -1.525200
-7.932073 3.479968 -1.460749
-8.940598 3.977436 -1.408287
-10.497109 4.747115 -1.373272
-11.417727 5.204826 -1.194091
-0.000479 -0.419397 -0.013429
-13.580607 6.278185 -0.711582
-13.517033 6.249303 -0.355430
-18.053608 8.494761 -0.002834
-18.027731 8.489201 0.464022
-18.018639 8.488019 0.934511
-18.000132 8.486092 1.401496
-17.984179 8.481481 1.869298
-17.981432 8.487333 2.343870
-17.953100 8.480475 2.813461
-17.720224 8.368274 3.246890
-17.968153 8.498431 3.776872
-0.547069 -0.146215 -0.375257
-2.865379 1.011669 -1.810406
-3.017059 1.087964 -1.804069
-3.189156 1.175167 -1.800920
-3.391448 1.277650 -1.805725
-3.615125 1.390984 -1.810670
-3.826126 1.497335 -1.797961
-4.094999 1.633629 -1.799119
-4.404149 1.790370 -1.803661
-4.748053 1.963753 -1.805161
-5.126404 2.155711 -1.799989
-5.312443 2.251265 -1.714785
-5.499755 2.346445 -1.621316
-5.899549 2.549836 -1.574463
-6.486789 2.847978 -1.553070
-7.174113 3.197055 -1.522552
-7.936677 3.537827 -1.465532
-8.943491 4.043417 -1.412651
-10.462765 4.803410 -1.372498
-11.391487 5.271590 -1.194558
-12.331965 5.746364 -0.970126
-13.628756 6.397243 -0.715901
-18.061047 8.621305 -0.471579
-18.050253 8.623185 -0.002671
-18.020590 8.611658 0.465292
-18.009901 8.613543 0.936906
-17.994894 8.613293 1.405284
-17.973738 8.609903 1.873919
-17.972420 8.612565 2.349604
-17.952829 8.609950 2.821697
-17.662458 8.471014 3.246049
-17.953331 8.620735 3.784804
-0.540857 -0.144912 -0.372183
-2.858401 1.029854 -1.811352
-3.012816 1.108636 -1.806849
-3.181240 1.195291 -1.801781
-3.379715 1.297346 -1.804834
-3.596508 1.408047 -1.806569
-3.811425 1.518729 -1.796381
-4.084413 1.659158 -1.799803
-4.396386 1.818672 -1.805667
-4.728777 1.989716 -1.803198
-5.114454 2.188227 -1.801129
-5.312407 2.290087 -1.719688
-5.478103 2.376789 -1.619748
-5.892758 2.589493 -1.577171
-6.495753 2.899937 -1.559649
-7.125185 3.224400 -1.516582
-7.884889 3.571007 -1.460293
-8.922960 4.097941 -1.413410
-10.426286 4.863122 -1.371720
-11.407273 5.364700 -1.199638
-11.577375 5.453087 -0.914100
-18.088202 8.762600 -0.948421
-18.051653 8.751369 -0.472575
-18.046022 8.751863 -0.002509
-18.014805 8.743313 0.466712
-18.005836 8.746035 0.939683
-17.992363 8.742523 1.409354
-17.969328 8.738094 1.879098
-17.964514 8.742912 2.355809
-17.942854 8.735203 2.828537
-17.621473 8.578403 3.248133
-17.939600 8.748087 3.793483
-0.536211 -0.142958 -0.370127
-2.850026 1.046703 -1.811319
-3.002407 1.125572 -1.805877
-3.171917 1.213986 -1.801746
-3.371400 1.318019 -1.805652
-3.587564 1.429981 -1.807344
-3.803488 1.542763 -1.797882
-4.062469 1.677918 -1.795404
-4.378428 1.841783 -1.803575
-4.713158 2.016452 -1.802513
-5.099369 2.218051 -1.801081
-5.325764 2.336068 -1.728993
-5.461927 2.408703 -1.619698
-5.878801 2.625586 -1.578038
-6.424420 2.910711 -1.547150
-7.086641 3.256744 -1.512829
-7.865303 3.618568 -1.460873
-8.905628 4.154184 -1.414723
-10.390400 4.920772 -1.370944
-11.338361 5.412503 -1.195855
-11.715481 5.608603 -0.927437
-0.000466 -0.418133 -0.013388
-18.057205 8.885809 -0.473937
-18.064013 8.892713 -0.002331
-18.041702 8.888575 0.468983
-18.069906 8.910487 0.946037
-18.043877 8.900420 1.417783
-17.969355 8.869270 1.884837
-17.969650 8.876762 2.363644
-17.940832 8.865189 2.836772
-17.599142 8.695573 3.253794
-17.935335 8.876992 3.804014
-0.539185 -0.137064 -0.373167
-2.844656 1.065110 -1.813244
-2.990351 1.141612 -1.803968
-3.165632 1.234310 -1.803504
-3.358155 1.336141 -1.803907
-3.576538 1.451659 -1.807306
-3.787246 1.562472 -1.795534
-4.053639 1.703425 -1.796817
-4.363301 1.867251 -1.802849
-4.699071 2.043968 -1.802468
-5.085821 2.248660 -1.801629
-5.324667 2.376071 -1.733895
-5.445568 2.440524 -1.619649
-5.876162 2.668969 -1.582125
-6.440928 2.968308 -1.555802
-7.069942 3.301885 -1.513875
-7.845440 3.666029 -1.461454
-8.878348 4.207361 -1.414649
-10.355980 4.979085 -1.370401
-11.433511 5.545334 -1.209249
-0.000461 -0.417712 -0.013375
-13.417435 6.588108 -0.710891
-18.100780 9.041009 -0.476297
-18.093513 9.044640 -0.002141
-18.078167 9.039991 0.471539
-18.063656 9.039834 0.948716
-18.041260 9.035526 1.422138
-17.961525 9.001117 1.890019
-17.949236 8.998034 2.368211
-17.927496 8.993985 2.843616
-17.586658 8.822280 3.261735
-17.930185 9.006145 3.814546
-0.531436 -0.136681 -0.369074
-2.835805 1.082390 -1.813211
-2.982626 1.160560 -1.804872
-3.155787 1.253476 -1.803469
-3.349293 1.357303 -1.804725
-3.564108 1.471785 -1.806456
-3.778696 1.587060 -1.797034
-4.032759 1.723490 -1.793143
-4.346761 1.890990 -1.801441
-4.681049 2.070440 -1.801145
-5.071603 2.280105 -1.802176
-5.328869 2.417943 -1.740449
-5.416570 2.466829 -1.616060
-5.860023 2.704080 -1.582533
-6.386823 2.987329 -1.547452
-7.055349 3.346656 -1.515292
-7.815844 3.710159 -1.460418
-8.851581 4.258821 -1.414577
-10.318502 5.038080 -1.369624
-11.353935 5.590194 -1.204541
-11.494326 5.666670 -0.915489
-18.048819 9.143570 -0.954462
-18.099123 9.177672 -0.477565
-18.089979 9.176253 -0.001977
-18.064102 9.170020 0.472817
-18.053093 9.171628 0.951303
-18.037613 9.166821 1.426348
-17.949169 9.127250 1.894636
-17.942120 9.130928 2.374882
-17.920155 9.122638 2.851292
-17.576670 8.947023 3.269998
-17.924213 9.139601 3.825451
-0.526774 -0.134829 -0.367018
-2.828682 1.099923 -1.814158
-2.970383 1.176460 -1.802963
-3.142990 1.270329 -1.801643
-3.337440 1.376116 -1.803835
-3.553194 1.492679 -1.806420
-3.758968 1.604834 -1.793147
-4.023657 1.748860 -1.794556
-4.336725 1.918175 -1.802765
-4.651631 2.089690 -1.795348
-5.054305 2.308786 -1.801534
-5.336159 2.461777 -1.748103
-5.399868 2.498402 -1.616011
-5.865931 2.751144 -1.588921
-6.382591 3.032861 -1.551129
-7.045667 3.394185 -1.517816
-5.780566 2.678415 -1.086807
-8.805311 4.299842 -1.411456
-5.687344 2.631931 -0.763122
-11.728031 5.875271 -1.247480
-11.661264 5.841697 -0.931315
-0.000474 -0.416891 -0.013348
-13.387044 6.779070 -0.357663
-18.081970 9.306280 -0.001814
-18.061411 9.302724 0.474375
-18.039783 9.298579 0.953697
-18.022501 9.292723 1.429714
-17.949968 9.261129 1.900748
-17.941019 9.263744 2.382249
-17.911964 9.251484 2.858968
-17.564083 9.071033 3.277935
-17.925903 9.273924 3.837839
-0.522110 -0.133020 -0.364963
-0.513783 -0.137342 -0.341196
-2.959626 1.193101 -1.801993
-3.136364 1.290534 -1.803401
-3.327077 1.395714 -1.803800
-3.542146 1.513528 -1.806383
-3.753754 1.630401 -1.796188
-4.012775 1.773291 -1.795243
-4.316605 1.939934 -1.799991
-4.635468 2.115940 -1.794665
-5.031849 2.334583 -1.799109
-5.338064 2.503020 -1.754107
-5.383005 2.529860 -1.615963
-5.856139 2.789957 -1.591169
-6.328318 3.051165 -1.542779
-5.927484 2.833983 -1.282956
-7.793808 3.814876 -1.465135
-5.777318 2.721123 -0.933447
-0.000469 -0.416470 -0.013335
-11.700354 5.947883 -1.248313
-11.728441 5.965423 -0.939390
-13.312454 6.832932 -0.711597
-13.715835 7.058351 -0.367118
-18.078354 9.439388 -0.001649
-18.050760 9.431901 0.475743
-18.036118 9.431457 0.956658
-18.013540 9.422599 1.433643
-17.935854 9.387681 1.905365
-17.926762 9.390217 2.387982
-17.904606 9.381519 2.866924
-17.562794 9.201818 3.288150
-14.934931 7.768866 3.205433
-0.526504 -0.126278 -0.369022
-0.506072 -0.137345 -0.337264
-2.958040 1.214820 -1.806649
-3.118677 1.304661 -1.798885
-3.311843 1.412650 -1.801201
-3.530989 1.534313 -1.806347
-3.738703 1.650602 -1.794611
-4.001734 1.797696 -1.795930
-4.298036 1.962451 -1.797900
-4.627450 2.146689 -1.797178
-5.022617 2.367638 -1.801442
-5.343018 2.546274 -1.761210
-5.369353 2.563101 -1.616925
-5.839280 2.825006 -1.591578
-6.361287 3.117414 -1.555580
-6.994464 3.472088 -1.516221
-5.865579 2.812251 -1.109322
-8.720922 4.385543 -1.406601
-10.221014 5.215808 -1.369151
-11.640847 6.003078 -1.245823
-0.000470 -0.416044 -0.013321
-13.431396 6.998743 -0.719963
-18.061920 9.562704 -0.480567
-18.059811 9.565039 -0.001492
-18.030481 9.556440 0.476873
-18.035034 9.566545 0.959807
-18.010670 9.556561 1.438135
-17.938299 9.524051 1.911851
-17.923820 9.523584 2.395350
-17.903269 9.515646 2.875998
-17.551939 9.328139 3.296738
-14.744932 7.775953 3.174714
-0.524831 -0.122838 -0.369006
-0.512062 -0.129755 -0.342141
-2.943982 1.229658 -1.803803
-3.113395 1.325638 -1.801540
-3.298111 1.430341 -1.799457
-3.516518 1.553246 -1.804685
-3.718688 1.668012 -1.790724
-3.980803 1.816562 -1.792258
-4.287578 1.989395 -1.799225
-4.612631 2.173705 -1.797134
-5.014837 2.401608 -1.804369
-5.346003 2.588707 -1.767764
-5.363922 2.601029 -1.620414
-5.795087 2.844674 -1.584626
-6.344242 3.156335 -1.556355
-7.014774 3.536846 -1.525391
-0.000465 -0.415622 -0.013307
-8.606649 4.387843 -1.392671
-10.190144 5.275972 -1.369302
-11.690598 6.119022 -1.254965
-11.589730 6.064898 -0.934091
-13.398936 7.082239 -0.720414
-18.077433 9.707997 -0.482337
-18.063101 9.703506 -0.001321
-18.039021 9.697682 0.478812
-18.020792 9.695100 0.962296
-18.013821 9.694712 1.443189
-17.934572 9.657831 1.917776
-17.921680 9.658195 2.402950
-17.895834 9.647134 2.884233
-14.807538 7.916852 2.788284
-14.555362 7.781114 3.143994
-0.518660 -0.121964 -0.365931
-0.530142 -0.115226 -0.354847
-2.936016 1.247861 -1.804708
-3.098659 1.341310 -1.798818
-3.292171 1.452379 -1.801986
-3.501607 1.572686 -1.803023
-3.711458 1.692537 -1.792995
-3.963041 1.837093 -1.790040
-4.273236 2.015215 -1.799183
-4.597648 2.200647 -1.797091
-4.993567 2.428017 -1.802539
-5.354828 2.636017 -1.776518
-5.361586 2.640925 -1.624914
-5.802713 2.894834 -1.591934
-6.316144 3.190454 -1.554640
-6.943416 3.551514 -1.514994
-7.695539 3.936519 -1.460420
-8.659030 4.485085 -1.405628
-10.158944 5.335944 -1.369453
-11.666644 6.194503 -1.256353
-11.493816 6.101479 -0.929434
-13.485880 7.233613 -0.727214
-13.942871 7.498772 -0.376133
-18.053162 9.839578 -0.001152
-18.036116 9.833413 0.480465
-18.021297 9.832712 0.965634
-18.003796 9.830445 1.447403
-17.926384 9.794044 1.923519
-17.913404 9.790169 2.409850
-14.807877 8.027232 2.392433
-14.600122 7.915019 2.758460
-14.369649 7.786311 3.114014
-0.518391 -0.117606 -0.366933
-0.535921 -0.107331 -0.359723
-2.923046 1.263905 -1.802799
-3.088212 1.360060 -1.798784
-3.274776 1.468685 -1.798532
-3.490114 1.593230 -1.802987
-3.698897 1.714937 -1.792957
-3.959313 1.866558 -1.794358
-4.255919 2.038325 -1.797776
-4.578788 2.226387 -1.795768
-4.963385 2.450377 -1.797735
-5.358834 2.679711 -1.783621
-5.358460 2.681799 -1.629413
-5.759965 2.914981 -1.585443
-6.310528 3.235999 -1.558318
-6.927267 3.595792 -1.516412
-7.657598 3.975654 -1.458093
-8.582564 4.507694 -1.397797
-10.124638 5.396549 -1.369371
-11.589234 6.242207 -1.252200
-11.585843 6.242537 -0.939722
-13.445462 7.316896 -0.727386
-0.000478 -0.414801 -0.013281
-18.049282 9.975709 -0.000984
-18.026943 9.970627 0.482028
-18.008627 9.967816 0.968410
-17.999781 9.966272 1.452035
-17.920740 9.928387 1.929444
-14.883761 8.181931 2.007002
-14.620105 8.032533 2.369901
-14.406684 7.915416 2.730908
-14.159109 7.778349 3.078834
-0.516672 -0.114210 -0.366917
-0.535659 -0.102967 -0.360685
-2.917915 1.283798 -1.805580
-3.079485 1.379140 -1.799646
-3.267015 1.489744 -1.800207
-3.481672 1.615540 -1.804576
-3.680211 1.732890 -1.789841
-3.939682 1.885979 -1.791414
-4.238481 2.061316 -1.796369
-4.571688 2.257914 -1.798921
-4.935267 2.472587 -1.793527
-5.350890 2.716764 -1.786874
-5.365592 2.727692 -1.636945
-5.733995 2.944566 -1.583553
-6.286039 3.270709 -1.557434
-6.909160 3.639009 -1.517462
-7.676575 4.045868 -1.466430
-5.807344 2.960887 -0.953149
-10.089312 5.454156 -1.369062
-11.419922 6.233096 -1.238082
-11.542142 6.306554 -0.939218
-13.197015 7.275928 -0.716432
-18.058647 10.116850 -0.486148
-18.040974 10.110129 -0.000818
-18.010015 10.099871 0.483348
-18.007175 10.106036 0.971748
-18.001699 10.106414 1.457231
-14.889004 8.293647 1.606296
-14.695147 8.186635 1.988198
-14.424226 8.030951 2.345969
-14.213735 7.913860 2.703354
-13.964184 7.773687 3.046620
-0.514940 -0.110828 -0.366900
-0.539852 -0.095912 -0.364582
-2.908098 1.300988 -1.805548
-3.066035 1.395443 -1.797820
-3.257562 1.509862 -1.801026
-3.471497 1.636914 -1.805353
-3.672549 1.757293 -1.792113
-3.926370 1.909054 -1.791375
-4.217700 2.082263 -1.793597
-4.544825 2.277846 -1.794405
-4.915295 2.499419 -1.792292
-5.326165 2.744019 -1.784626
-5.370721 2.772775 -1.643971
-5.722936 2.982912 -1.585802
-6.266410 3.308257 -1.557795
-6.831638 3.647008 -1.505592
-7.633758 4.080409 -1.463136
-5.803157 3.003754 -0.955592
-10.055349 5.512584 -1.368983
-11.504962 6.372011 -1.251285
-11.515278 6.380428 -0.940098
-0.000469 -0.413959 -0.013254
-18.044188 10.248545 -0.487239
-18.040308 10.249901 -0.000645
-18.021431 10.246593 0.485478
-18.008184 10.246604 0.975275
-14.943590 8.435381 1.211671
-14.686128 8.289322 1.589765
-14.481347 8.174264 1.965891
-14.227160 8.026386 2.321756
-14.021286 7.910366 2.675797
-13.806973 7.789128 3.022576
-0.511707 -0.108332 -0.365864
-0.539531 -0.091521 -0.365545
-2.895161 1.316298 -1.803640
-3.063246 1.418074 -1.802269
-3.240231 1.525293 -1.797574
-3.453367 1.653530 -1.802067
-3.664758 1.781656 -1.794385
-3.917745 1.934903 -1.793515
-4.204888 2.107881 -1.794239
-4.534141 2.307307 -1.796279
-4.898452 2.528085 -1.792248
-5.298015 2.769109 -1.781277
-5.373838 2.817040 -1.650493
-5.741637 3.039316 -1.596330
-6.249913 3.347720 -1.558985
-6.835093 3.702919 -1.511440
-7.602669 4.121681 -1.462105
-5.808907 3.052747 -0.959698
-10.024479 5.572837 -1.369366
-11.426379 6.415076 -1.246952
-11.606120 6.524850 -0.950522
-13.171013 7.466195 -0.719638
-18.045950 10.390713 -0.488782
-18.042084 10.392049 -0.000471
-18.007763 10.379390 0.486942
-14.946629 8.551228 0.810143
-14.736694 8.428301 1.198975
-14.482102 8.281923 1.573043
-14.298820 8.178149 1.947784
-14.040812 8.025960 2.299217
-13.837826 7.910007 2.649865
-0.000465 -0.413537 -0.013240
-0.512902 -0.103209 -0.367886
-0.543631 -0.084385 -0.369442
-2.882141 1.331527 -1.801733
-3.048072 1.433319 -1.799547
-3.227476 1.543398 -1.796685
-3.438306 1.671888 -1.800407
-3.648917 1.801216 -1.792809
-3.897795 1.953971 -1.790571
-4.190298 2.132480 -1.794198
-4.508679 2.327892 -1.792402
-4.874909 2.552697 -1.789824
-5.282891 2.801984 -1.782330
-5.376646 2.861429 -1.657014
-5.700072 3.059559 -1.590301
-6.184711 3.357595 -1.548151
-6.779394 3.723183 -1.504370
-7.576445 4.165792 -1.462042
-8.470322 4.707790 -1.398077
-9.988129 5.629873 -1.369057
-11.460114 6.525542 -1.254802
-11.692261 6.668481 -0.960667
-13.544013 7.796049 -0.742066
-18.034721 10.525982 -0.490008
-18.025719 10.524206 -0.000308
-18.017078 10.526921 0.489072
-14.761577 8.556656 0.802890
-14.540619 8.425349 1.187121
-14.297393 8.283829 1.558376
-14.103173 8.171945 1.927806
-13.848194 8.019540 2.275558
-0.000460 -0.413116 -0.013227
-13.708178 7.946396 3.022038
-0.506700 -0.102535 -0.364812
-0.544694 -0.079010 -0.371382
-2.884100 1.355902 -1.809204
-3.035882 1.450313 -1.798618
-3.216162 1.562370 -1.796651
-3.428994 1.694587 -1.801996
-3.631389 1.819715 -1.790463
-3.890456 1.980702 -1.793438
-4.171943 2.155729 -1.792792
-4.497671 2.357208 -1.794277
-4.865891 2.586142 -1.792753
-5.262099 2.832674 -1.781731
-5.388998 2.912060 -1.666566
-5.692625 3.101917 -1.593929
-6.172244 3.400792 -1.550585
-6.749731 3.760644 -1.503204
-7.539842 4.203595 -1.460042
-8.434743 4.755258 -1.397176
-9.956578 5.689763 -1.369442
-11.460727 6.616816 -1.259144
-11.673862 6.752744 -0.962513
-0.000456 -0.412695 -0.013213
-18.032755 10.667759 -0.491506
-18.020134 10.668049 -0.000132
-14.801461 8.691849 0.400986
-14.556549 8.547688 0.794502
-14.336730 8.418763 1.174704
-14.099736 8.279078 1.542401
-13.906400 8.162729 1.907593
-0.000456 -0.412695 -0.013213
-13.716014 8.057555 2.645516
-13.709933 8.056616 3.033285
-0.513624 -0.093672 -0.370910
-0.545680 -0.073539 -0.373322
-2.875082 1.374315 -1.810109
-3.027835 1.470583 -1.800377
-3.204394 1.581836 -1.796616
-3.416811 1.714714 -1.801960
-3.622788 1.844568 -1.792734
-3.866700 1.998252 -1.789041
-4.153903 2.178136 -1.791386
-4.484391 2.386260 -1.795512
-4.843172 2.612333 -1.790923
-5.248227 2.866394 -1.783334
-5.385603 2.954642 -1.671570
-5.695399 3.149508 -1.600318
-6.156822 3.440842 -1.552190
-6.698946 3.783159 -1.497243
-7.477108 4.226812 -1.453195
-8.371183 4.783277 -1.391566
-9.920194 5.749155 -1.369362
-11.554126 6.769221 -1.273818
-11.576483 6.785514 -0.957861
-13.338543 7.887132 -0.735979
-18.000647 10.796110 -0.492277
-14.837527 8.829571 -0.002295
-14.596175 8.685781 0.396854
-14.359056 8.544427 0.786586
-14.153593 8.419228 1.163830
-13.912626 8.275121 1.527355
-0.000473 -0.412295 -0.013200
-13.728458 8.169127 2.272410
-13.717162 8.168232 2.655382
-13.707721 8.168473 3.044164
-0.507411 -0.093052 -0.367836
-0.530427 -0.078340 -0.364498
-2.851288 1.382802 -1.801637
-3.016934 1.488423 -1.800344
-3.192882 1.600657 -1.796582
-3.404514 1.734773 -1.801925
-3.606635 1.863823 -1.791159
-3.851191 2.019897 -1.788276
-4.135745 2.200426 -1.789980
-4.463409 2.409411 -1.793553
-4.830514 2.643662 -1.792662
-5.232515 2.899038 -1.784388
-5.395569 3.004644 -1.680618
-5.651780 3.168083 -1.593829
-6.147761 3.485028 -1.555454
-6.674671 3.822096 -1.497186
-7.463660 4.278597 -1.455718
-8.329400 4.824428 -1.389560
-9.889601 5.809768 -1.369977
-11.777164 7.002647 -1.302702
-11.571982 6.875873 -0.960815
-13.567732 8.138917 -0.750954
-14.867926 8.965106 -0.410221
-14.633507 8.820310 -0.002299
-14.411661 8.686848 0.393242
-14.167042 8.538829 0.778854
-13.964219 8.413589 1.152391
-0.000468 -0.411874 -0.013187
-0.000468 -0.411874 -0.013187
-13.722311 8.275990 2.279780
-13.715840 8.278131 2.664922
-13.696228 8.271897 3.052811
-0.501217 -0.092498 -0.364762
-0.544694 -0.064579 -0.375246
-2.845386 1.402454 -1.804418
-3.007472 1.507128 -1.801208
-3.184293 1.621377 -1.798257
-3.384409 1.749834 -1.797828
-3.582594 1.878009 -1.785735
-3.843418 2.046462 -1.791144
-4.125391 2.227656 -1.791989
-4.447097 2.435485 -1.793511
-4.806434 2.667707 -1.790240
-5.208518 2.926416 -1.782691
-0.000464 -0.411452 -0.013173
-5.658930 3.218854 -1.601598
-6.118629 3.516565 -1.553743
-6.651843 3.861939 -1.497499
-7.413212 4.307089 -1.451135
-8.325843 4.889751 -1.393927
-9.806707 5.837137 -1.363441
-11.465629 6.899433 -1.273091
-11.536572 6.947086 -0.961282
-13.405433 8.145308 -0.744697
-13.807720 8.408379 -0.383157
-13.545317 8.243627 -0.002972
-14.205722 8.672098 0.389008
-13.982309 8.535625 0.771497
-0.000464 -0.411452 -0.013173
-0.000464 -0.411452 -0.013173
-13.724485 8.386059 1.903698
-13.727032 8.390582 2.289109
-13.708733 8.385100 2.673486
-13.695586 8.382892 3.064057
-0.496432 -0.090978 -0.362707
-0.527958 -0.070375 -0.365443
-2.827179 1.414921 -1.799697
-2.988538 1.520509 -1.796693
-3.174066 1.641083 -1.799078
-3.377679 1.774268 -1.801042
-3.573609 1.902657 -1.788006
-3.824524 2.065933 -1.788927
-4.101797 2.247384 -1.788534
-4.419514 2.454247 -1.788996
-4.783824 2.692642 -1.788412
-5.195073 2.961884 -1.784843
-5.412666 3.104306 -1.698206
-5.660161 3.267627 -1.607985
-6.109054 3.560677 -1.557007
-6.627141 3.900589 -1.497444
-7.370183 4.341770 -1.448166
-8.325884 4.959873 -1.399123
-9.749440 5.882707 -1.360595
-11.412013 6.961282 -1.271894
-11.532931 7.041821 -0.964510
-13.364498 8.231628 -0.745147
-13.743261 8.479493 -0.382694
-14.232444 8.802487 -0.002306
-14.010615 8.665329 0.385107
-0.000464 -0.411026 -0.013160
-0.000464 -0.411026 -0.013160
-13.728711 8.494828 1.524106
-13.733562 8.504310 1.912207
-13.716063 8.499274 2.296203
-13.695886 8.489058 2.681073
-13.689171 8.490973 3.074190
-0.491764 -0.089685 -0.360652
-0.528983 -0.065122 -0.367383
-2.824339 1.435931 -1.804356
-2.985198 1.542476 -1.801142
-3.154636 1.654796 -1.794772
-3.368098 1.796109 -1.802631
-3.551381 1.916918 -1.783353
-3.807090 2.086287 -1.787436
-4.091133 2.274482 -1.790543
-4.401362 2.479030 -1.788315
-4.761090 2.717413 -1.786585
-5.173982 2.991089 -1.784247
-5.414991 3.150706 -1.705232
-5.630762 3.295227 -1.605637
-6.060880 3.581126 -1.550735
-6.614582 3.948902 -1.500339
-7.351787 4.388676 -1.449722
-8.276578 4.996236 -1.396009
-9.557810 5.835324 -1.338838
-11.375679 7.028571 -1.272365
-11.618374 7.192660 -0.975067
-13.412971 8.370017 -0.750380
-13.583131 8.487677 -0.379660
-14.052028 8.801378 -0.002300
-13.842669 8.667094 0.381867
-0.000460 -0.410605 -0.013146
-13.733020 8.607902 1.146363
-13.732176 8.613750 1.530571
-13.726786 8.613135 1.918614
-13.705870 8.605741 2.303294
-13.692258 8.603138 2.690942
-13.681967 8.599265 3.084323
-0.494155 -0.083507 -0.363693
-0.525459 -0.062524 -0.366388
-2.819234 1.456974 -1.808075
-2.967601 1.556623 -1.797524
-3.148364 1.677891 -1.798156
-3.346219 1.809810 -1.797723
-3.545201 1.943476 -1.787164
-3.795318 2.111315 -1.788851
-4.078749 2.300489 -1.791869
-4.382567 2.504464 -1.787634
-4.731328 2.738617 -1.782379
-5.152721 3.020173 -1.783650
-5.422768 3.202496 -1.714278
-5.606099 3.325846 -1.604668
-6.047561 3.622899 -1.553171
-6.574655 3.977522 -1.496962
-7.310022 4.423913 -1.447077
-8.245318 5.044218 -1.395943
-9.562022 5.919736 -1.344529
-11.357897 7.113965 -1.275228
-11.627610 7.295139 -0.979402
-13.332347 8.431080 -0.748717
-0.000455 -0.410184 -0.013133
-13.875437 8.800714 -0.002294
-0.000455 -0.410184 -0.013133
-13.744174 8.726430 0.767272
-13.742290 8.728151 1.151674
-13.723066 8.721782 1.535535
-13.719276 8.725673 1.925259
-13.698210 8.714576 2.310944
-13.689372 8.715085 2.700808
-13.675655 8.712331 3.095202
-0.480827 -0.087911 -0.355524
-0.513327 -0.065909 -0.359522
-2.811381 1.475561 -1.809919
-2.957721 1.575091 -1.798388
-3.131805 1.693366 -1.795559
-3.328835 1.826403 -1.795251
-3.528544 1.962199 -1.785590
-3.771479 2.127292 -1.784456
-4.058407 2.321195 -1.789782
-4.361011 2.526886 -1.785676
-0.000472 -0.409784 -0.013120
-5.136066 3.052367 -1.784704
-5.429145 3.252487 -1.722819
-5.539315 3.328007 -1.591744
-6.027480 3.660270 -1.553948
-6.549282 4.015731 -1.496907
-7.285358 4.468533 -1.447664
-8.200616 5.083204 -1.393661
-9.444543 5.920926 -1.333153
-11.314384 7.179665 -1.275143
-11.675832 7.424642 -0.987055
-13.256326 8.491431 -0.747242
-0.000472 -0.409784 -0.013120
-0.000472 -0.409784 -0.013120
-13.752159 8.840324 0.382549
-13.746023 8.842650 0.770490
-13.734119 8.837630 1.155576
-13.716484 8.832223 1.540874
-13.714183 8.837150 1.932133
-13.699599 8.830269 2.320273
-13.684008 8.826202 2.710348
-13.670086 8.823263 3.106078
-0.487514 -0.078938 -0.361621
-0.505550 -0.066445 -0.355590
-0.525097 -0.053071 -0.349768
-2.944786 1.591487 -1.797460
-3.121156 1.712789 -1.796381
-3.321961 1.850059 -1.798466
-3.510252 1.979784 -1.783245
-3.762980 2.153576 -1.787324
-4.042626 2.344933 -1.789743
-4.347172 2.554499 -1.786913
-4.686878 2.788354 -1.779320
-5.116058 3.082297 -1.784659
-5.433546 3.301567 -1.730855
-5.545035 3.378919 -1.599512
-6.020104 3.706370 -1.558042
-6.536692 4.062651 -1.499805
-7.232643 4.494215 -1.442760
-8.177049 5.136317 -1.394981
-9.386570 5.961119 -1.330082
-11.282038 7.252936 -1.276350
-11.668492 7.517948 -0.990147
-12.775277 8.275980 -0.723264
-13.584489 8.832576 -0.383690
-13.773383 8.964123 -0.002088
-13.749899 8.954664 0.384129
-13.742029 8.955830 0.773425
-13.730084 8.950699 1.159901
-13.712368 8.945143 1.546587
-13.709913 8.949977 1.939241
-13.691927 8.940705 2.328203
-13.677809 8.937572 2.719889
-13.660473 8.932193 3.116211
-0.484190 -0.076700 -0.360586
-0.509336 -0.059189 -0.359488
-0.525955 -0.047642 -0.351627
-2.934700 1.609840 -1.798325
-3.096980 1.722937 -1.789512
-3.307397 1.868533 -1.797619
-3.499485 2.002470 -1.784748
-3.751235 2.177737 -1.788739
-4.020509 2.364322 -1.786973
-4.326927 2.577742 -1.785594
-4.666831 2.814614 -1.778683
-5.087969 3.106649 -1.781863
-5.437560 3.350823 -1.738890
-5.539134 3.422289 -1.604062
-5.985063 3.733577 -1.555089
-6.512451 4.101758 -1.500119
-7.183140 4.521674 -1.438503
-8.133551 5.175885 -1.392977
