ply
format ascii 1.0
element vertex 1680
property float x
property float y
property float z
end_header
0.293734 0.182207 -0.325856
0.302179 0.195831 -0.317381
0.000453 -0.298890 -0.009852
0.000453 -0.298890 -0.009852
2.048392 3.050595 -1.754185
2.157293 3.227134 -1.732610
2.297753 3.453621 -1.724059
2.460744 3.716502 -1.719769
2.628209 3.987919 -1.704545
2.826563 4.307662 -1.691689
3.047155 4.663096 -1.674660
3.331908 5.124465 -1.670875
3.648977 5.635699 -1.654872
4.045488 6.275189 -1.644379
4.527445 7.052390 -1.629637
5.045295 7.973536 -1.594117
5.759610 9.136997 -1.554823
6.710514 10.690145 -1.503277
6.895959 10.984471 -1.233320
6.948474 11.060973 -0.930758
6.948500 11.056043 -0.620425
19.165449 30.995773 -0.833727
38.738396 62.904163 0.046890
0.000453 -0.298890 -0.009852
0.000453 -0.298890 -0.009852
0.000453 -0.298890 -0.009852
17.746067 28.569498 3.177720
19.013624 30.618021 4.262729
0.000453 -0.298890 -0.009852
0.000453 -0.298890 -0.009852
0.000453 -0.298890 -0.009852
0.303289 0.192143 -0.351161
0.297494 0.182355 -0.326824
0.306023 0.195939 -0.318308
0.319339 0.217043 -0.313592
0.332575 0.238206 -0.307984
0.347887 0.262474 -0.303000
2.183013 3.222514 -1.736469
2.324218 3.448652 -1.727702
2.484802 3.704269 -1.720466
2.654840 3.976344 -1.705840
2.857070 4.298213 -1.694086
3.077702 4.649147 -1.675781
3.363066 5.105592 -1.670900
3.683091 5.615009 -1.654901
4.085216 6.257876 -1.645655
4.569459 7.029078 -1.630043
5.096366 7.947238 -1.594809
5.813832 9.104074 -1.554877
6.760936 10.626884 -1.500118
6.903010 10.847264 -1.222886
6.950721 10.919419 -0.922546
6.964162 10.931839 -0.616003
0.000459 -0.298469 -0.009838
39.243095 62.908146 0.046655
0.000459 -0.298469 -0.009838
0.000459 -0.298469 -0.009838
0.000459 -0.298469 -0.009838
17.912266 28.478817 3.178468
21.141665 33.639210 4.696701
0.000459 -0.298469 -0.009838
0.000459 -0.298469 -0.009838
0.000459 -0.298469 -0.009838
0.306934 0.192319 -0.352170
0.297401 0.176670 -0.323878
0.308788 0.194650 -0.318298
0.319363 0.211122 -0.310894
0.336626 0.238239 -0.308829
0.000464 -0.298048 -0.009824
2.200674 3.207561 -1.734941
2.344769 3.434053 -1.726989
2.507107 3.690746 -1.720481
2.682420 3.966201 -1.707773
2.882460 4.280475 -1.693511
3.103230 4.629048 -1.674702
3.397218 5.091462 -1.672440
3.719154 5.599695 -1.656307
4.120802 6.231342 -1.644860
4.616822 7.011366 -1.631926
5.147547 7.927419 -1.596467
5.867296 9.073561 -1.555206
6.760658 10.491732 -1.486814
6.910104 10.721206 -1.213368
6.970834 10.813235 -0.917090
6.961946 10.789962 -0.610477
0.000464 -0.298048 -0.009824
36.407532 57.617210 0.041713
0.000464 -0.298048 -0.009824
17.821770 28.005079 1.575152
17.726324 27.841316 2.340886
18.214693 28.592903 3.202434
21.451252 33.698761 4.721720
17.233906 27.002974 4.552327
0.000464 -0.298048 -0.009824
0.000464 -0.298048 -0.009824
0.306070 0.185145 -0.348084
0.295468 0.168007 -0.318976
0.310662 0.191778 -0.317350
0.321320 0.208172 -0.309988
0.340673 0.238232 -0.309673
0.354322 0.259268 -0.302981
2.228732 3.207700 -1.741108
2.366213 3.420901 -1.727002
2.530715 3.676209 -1.720497
2.708957 3.954291 -1.709068
2.906708 4.260983 -1.692341
3.144812 4.630418 -1.681323
3.428186 5.072220 -1.672465
3.754064 5.577931 -1.656338
4.162634 6.212148 -1.646137
4.659036 6.982599 -1.631598
5.197994 7.903058 -1.597480
5.923850 9.040671 -1.555538
6.756682 10.349041 -1.472589
6.917921 10.594228 -1.203850
6.807593 10.411755 -0.887622
0.000469 -0.297627 -0.009810
0.000469 -0.297627 -0.009810
0.000469 -0.297627 -0.009810
0.000469 -0.297627 -0.009810
21.317671 33.129063 1.868686
17.962751 27.845383 2.349856
18.350437 28.429377 3.196053
17.706350 27.409111 3.860231
17.167288 26.543669 4.492256
0.000469 -0.297627 -0.009810
0.000469 -0.297627 -0.009810
0.306136 0.179389 -0.345017
0.297281 0.165195 -0.317987
0.311647 0.187368 -0.315464
0.324327 0.206688 -0.309978
0.341878 0.233568 -0.307955
0.355637 0.254498 -0.301347
2.259486 3.210359 -1.748815
2.390238 3.410336 -1.728468
2.551184 3.656802 -1.718464
2.732081 3.935381 -1.707808
2.937845 4.250494 -1.694739
3.178157 4.618539 -1.683546
3.456828 5.047328 -1.670976
3.796263 5.567416 -1.659585
4.202241 6.189393 -1.646587
4.705345 6.960187 -1.632745
5.243352 7.867504 -1.596559
5.982346 9.010761 -1.556425
6.761701 10.218933 -1.460208
6.924222 10.462966 -1.193965
6.822401 10.296107 -0.881477
6.914728 10.434879 -0.595667
18.303492 28.089073 -0.768919
0.000474 -0.297206 -0.009796
0.000474 -0.297206 -0.009796
21.485287 32.955444 1.865800
18.051426 27.618109 2.339508
18.566032 28.390650 3.203717
18.062605 27.600784 3.901649
17.769932 27.126482 4.607350
0.000474 -0.297206 -0.009796
0.000474 -0.297206 -0.009796
0.310755 0.180938 -0.347044
0.304685 0.171209 -0.322868
0.317334 0.190450 -0.318267
0.328192 0.206732 -0.310863
0.345912 0.233531 -0.308799
0.365780 0.263570 -0.307022
0.381662 0.287679 -0.300649
2.411543 3.396936 -1.728481
2.579046 3.650339 -1.721892
2.757435 3.921584 -1.708464
2.959803 4.227539 -1.692381
3.202178 4.594131 -1.681369
3.493896 5.037464 -1.674032
3.829948 5.545865 -1.659615
4.238429 6.163858 -1.646206
4.747063 6.933404 -1.632784
5.293490 7.842549 -1.597574
6.039094 8.981575 -1.557309
6.769024 10.098667 -1.448977
6.938232 10.349931 -1.185920
6.845125 10.198561 -0.876709
6.943674 10.345121 -0.592981
0.000453 -0.296802 -0.009782
18.524439 28.049221 0.015093
0.000453 -0.296802 -0.009782
18.279062 27.639240 1.571638
0.000453 -0.296802 -0.009782
17.747541 26.783136 3.034812
18.238235 27.520000 3.904730
0.000453 -0.296802 -0.009782
0.000453 -0.296802 -0.009782
0.000453 -0.296802 -0.009782
0.310735 0.175180 -0.343977
0.305529 0.166890 -0.320901
0.316332 0.183077 -0.314506
0.329205 0.202210 -0.309061
0.347066 0.228874 -0.307080
0.366986 0.258822 -0.305388
0.364767 0.255014 -0.285250
2.435443 3.386067 -1.729948
2.604835 3.640538 -1.723956
2.784504 3.908730 -1.709759
2.989749 4.215087 -1.694184
3.236660 4.585643 -1.684690
3.527622 5.020286 -1.675069
3.865677 5.527372 -1.660563
4.277732 6.143029 -1.647069
4.788611 6.906361 -1.632824
5.344939 7.816359 -1.598589
6.094593 8.950360 -1.557917
6.845878 10.081941 -1.452269
6.936538 10.210927 -1.175111
6.968128 10.254292 -0.884642
6.968120 10.245803 -0.589838
26.940495 40.431549 -1.107898
0.000458 -0.296381 -0.009769
18.606346 27.797468 0.797110
18.775612 28.030273 1.599827
18.059763 26.938683 2.299232
17.859173 26.614548 3.027137
18.404085 27.413391 3.904768
0.000458 -0.296381 -0.009769
0.000458 -0.296381 -0.009769
0.000458 -0.296381 -0.009769
0.313452 0.173809 -0.343967
0.309160 0.166994 -0.321869
0.323987 0.189012 -0.319184
0.334056 0.203699 -0.310843
0.352006 0.230359 -0.308779
0.371203 0.258648 -0.306190
0.000463 -0.295960 -0.009755
2.455967 3.372831 -1.729961
2.624316 3.621200 -1.721923
2.808987 3.895101 -1.710415
3.007424 4.187617 -1.690043
3.264706 4.567332 -1.684713
3.552934 4.994495 -1.673073
3.899148 5.505434 -1.660592
4.314693 6.121064 -1.647516
4.828751 6.879924 -1.632862
5.393756 7.789147 -1.599281
6.145533 8.912228 -1.557418
6.938634 10.092331 -1.459247
6.937171 10.081823 -1.165220
6.963325 10.116547 -0.876560
6.962037 10.106292 -0.584399
27.201992 40.332401 -1.109572
0.000463 -0.295960 -0.009755
0.000463 -0.295960 -0.009755
0.000463 -0.295960 -0.009755
18.090652 26.647493 2.283117
18.321163 26.979294 3.079565
19.646765 28.929405 4.134107
0.000463 -0.295960 -0.009755
0.000463 -0.295960 -0.009755
0.000463 -0.295960 -0.009755
0.313171 0.168178 -0.340899
0.314679 0.170030 -0.324794
0.325690 0.186138 -0.318236
0.331823 0.194825 -0.306353
0.349969 0.221256 -0.304497
0.375416 0.258437 -0.306992
0.373076 0.254746 -0.286769
2.479133 3.362123 -1.731426
2.648930 3.609547 -1.723304
2.831989 3.877687 -1.709794
3.035340 4.173807 -1.691251
3.290499 4.545695 -1.683635
3.585500 4.977552 -1.674109
3.935769 5.488127 -1.662001
4.351589 6.094157 -1.647137
4.875653 6.858050 -1.634379
5.442121 7.764216 -1.600294
6.206203 8.888577 -1.559412
7.022118 10.091693 -1.464611
6.995004 10.043334 -1.165282
7.016450 10.066771 -0.875795
6.958390 9.976692 -0.579415
27.417547 40.149006 -1.109141
0.000468 -0.295539 -0.009741
19.598663 28.579741 0.825486
20.999529 30.619095 1.759875
19.813509 28.849834 2.479963
18.611500 27.059868 3.100899
18.284740 26.568256 3.813938
0.000468 -0.295539 -0.009741
0.000468 -0.295539 -0.009741
0.000468 -0.295539 -0.009741
0.316889 0.168154 -0.341908
0.315461 0.165687 -0.322827
0.326537 0.181691 -0.316351
0.336737 0.196209 -0.308135
0.358125 0.227035 -0.308759
0.378584 0.256668 -0.306983
0.377368 0.254455 -0.287529
2.500774 3.347756 -1.731441
2.674544 3.599278 -1.725368
2.860998 3.867487 -1.712367
3.065027 4.160839 -1.693055
3.322656 4.533398 -1.685857
3.618910 4.959788 -1.675146
3.966777 5.462559 -1.661112
4.390522 6.072622 -1.648000
4.920098 6.835111 -1.635526
5.492075 7.735468 -1.600988
6.261225 8.856378 -1.560020
7.119528 10.102714 -1.472054
7.106877 10.075994 -1.173644
7.109861 10.075994 -0.880002
7.014701 9.929063 -0.579113
27.554045 39.836048 -1.105343
0.000473 -0.295118 -0.009727
19.895370 28.646261 0.830588
20.302799 29.215538 1.686159
19.634922 28.232788 2.436634
18.428768 26.459082 3.044362
18.393095 26.386129 3.803228
0.000473 -0.295118 -0.009727
0.000473 -0.295118 -0.009727
0.000473 -0.295118 -0.009727
0.319557 0.166746 -0.341898
0.320087 0.167143 -0.324773
0.329294 0.180239 -0.316340
0.341611 0.197634 -0.309917
0.360097 0.223900 -0.307895
0.373526 0.242832 -0.300476
0.388949 0.264822 -0.293676
2.529163 3.344438 -1.736537
2.697613 3.583774 -1.725383
2.885982 3.852899 -1.713024
3.090638 4.143538 -1.693074
3.353441 4.517172 -1.686981
3.651315 4.942449 -1.676182
4.005323 5.445729 -1.662981
4.429331 6.048472 -1.648450
4.963436 6.807822 -1.635936
5.538216 7.704117 -1.601035
6.317649 8.822726 -1.560631
7.207584 10.102785 -1.477882
8.039377 11.293625 -1.315497
8.131617 11.417326 -0.996631
7.098542 9.925023 -0.581195
27.873701 39.805180 -1.109143
0.000457 -0.294718 -0.009713
23.450352 33.400829 0.972288
20.773840 29.531336 1.710917
20.559072 29.199692 2.529712
19.625051 27.837475 3.214692
18.606720 26.366535 3.815426
0.000457 -0.294718 -0.009713
0.000457 -0.294718 -0.009713
0.000457 -0.294718 -0.009713
0.325249 0.169488 -0.344944
0.321826 0.164233 -0.323784
0.335146 0.183032 -0.319143
0.344509 0.196001 -0.309907
0.361076 0.219200 -0.306176
0.383953 0.251542 -0.306152
0.389070 0.258387 -0.291358
0.417639 0.298542 -0.292183
2.719885 3.568579 -1.725399
2.907258 3.831472 -1.711126
3.127902 4.141133 -1.699040
3.385520 4.504481 -1.689203
3.684543 4.924264 -1.677219
4.036052 5.419795 -1.662091
4.472548 6.032856 -1.650971
5.008794 6.785961 -1.637452
5.587833 7.674761 -1.601728
6.374594 8.793098 -1.561794
7.488283 10.372437 -1.522218
8.033581 11.140225 -1.303587
8.148426 11.298878 -0.990629
8.179712 11.334239 -0.662755
0.000462 -0.294297 -0.009699
36.280228 51.223053 0.034235
23.103920 32.486870 0.949376
20.561256 28.856188 1.678738
20.669949 28.998112 2.522317
18.588728 26.027939 3.019273
19.023689 26.622690 3.868045
22.786959 31.934143 5.565477
0.000462 -0.294297 -0.009699
0.000462 -0.294297 -0.009699
0.328912 0.169434 -0.345953
0.323441 0.161358 -0.322796
0.336858 0.180064 -0.318195
0.347336 0.194438 -0.309897
0.366131 0.220488 -0.307875
0.386036 0.248257 -0.305330
0.394399 0.259576 -0.292887
0.424289 0.301098 -0.294352
2.743169 3.554798 -1.726098
2.933169 3.818169 -1.712421
3.154496 4.125019 -1.699654
3.407499 4.477491 -1.686476
3.715647 4.904944 -1.677750
4.070013 5.398454 -1.662581
4.508910 6.007416 -1.651005
5.050612 6.759003 -1.637861
5.638191 7.649300 -1.603067
6.431391 8.763103 -1.562958
7.570300 10.358709 -1.526436
8.047350 11.021154 -1.295362
8.144504 11.153019 -0.982277
8.178185 11.191352 -0.657414
0.000467 -0.293876 -0.009685
36.717941 51.212376 0.034024
20.995403 29.134180 0.854585
20.568592 28.513346 1.665482
0.000467 -0.293876 -0.009685
20.461929 28.329664 3.297389
19.335566 26.732813 3.899632
18.630514 25.736490 4.511571
0.000467 -0.293876 -0.009685
0.000467 -0.293876 -0.009685
0.327557 0.162354 -0.341867
0.321993 0.154246 -0.318871
0.337521 0.175668 -0.316309
0.349089 0.191387 -0.308991
0.365912 0.214380 -0.305302
0.387014 0.243475 -0.303695
0.393255 0.251716 -0.289799
0.436412 0.311142 -0.300153
2.767465 3.542389 -1.727479
2.960109 3.806222 -1.714356
3.179892 4.107203 -1.699674
3.437171 4.461328 -1.687599
3.750054 4.890150 -1.679797
4.103866 5.376920 -1.663071
4.548558 5.986515 -1.652283
5.093448 6.733405 -1.638640
5.686123 7.620308 -1.603760
6.489213 8.734373 -1.564398
7.662836 10.358899 -1.532730
8.060014 10.902309 -1.287137
8.144982 11.015673 -0.974615
8.179937 11.055338 -0.652440
0.000472 -0.293455 -0.009671
37.146179 51.183746 0.033797
20.774734 28.473440 0.838459
16.998857 23.226475 1.363523
20.700886 28.336994 2.485127
0.000472 -0.293455 -0.009671
19.487425 26.616634 3.898737
18.598879 25.379013 4.467752
0.000472 -0.293455 -0.009671
0.000472 -0.293455 -0.009671
0.331175 0.162259 -0.342875
0.332759 0.164078 -0.326689
0.338137 0.171276 -0.314424
0.350830 0.188349 -0.308084
0.369891 0.214141 -0.306146
0.392341 0.244538 -0.305310
0.398561 0.252841 -0.291329
0.437689 0.306028 -0.298691
2.792395 3.529362 -1.728861
2.981431 3.786468 -1.713095
3.210788 4.096919 -1.702667
3.467577 4.444362 -1.688723
3.776389 4.864182 -1.678308
4.139735 5.356031 -1.664021
4.586895 5.961418 -1.652734
5.137357 6.706633 -1.639420
5.733931 7.591054 -1.604452
6.547325 8.702540 -1.565563
6.818949 9.071898 -1.354311
8.069223 10.780474 -1.278541
8.160212 10.896633 -0.968611
8.185103 10.926147 -0.647831
0.000455 -0.293056 -0.009658
37.583111 51.143738 0.033556
21.783670 29.507875 0.872412
16.705873 22.543325 1.329044
21.676497 29.315165 2.581266
20.851730 28.166441 3.305953
20.162268 27.214087 4.002048
18.861006 25.418743 4.493852
0.000455 -0.293056 -0.009658
0.000455 -0.293056 -0.009658
0.339983 0.169019 -0.348979
0.333397 0.159705 -0.324722
0.341926 0.171097 -0.315352
0.355798 0.189554 -0.309866
0.373965 0.213810 -0.306991
0.394338 0.241210 -0.304489
0.401790 0.250885 -0.291319
0.433485 0.293351 -0.293598
2.812119 3.510611 -1.727511
3.007812 3.772152 -1.714392
3.239048 4.081281 -1.703876
3.497076 4.427812 -1.689846
3.804607 4.838989 -1.677325
4.176816 5.338754 -1.665891
4.626314 5.940015 -1.654012
5.181092 6.682084 -1.640567
5.781752 7.558880 -1.604824
6.608405 8.677855 -1.567835
6.859057 9.010897 -1.351373
0.000461 -0.292635 -0.009644
8.160516 10.763172 -0.961223
8.193339 10.799040 -0.643407
0.000461 -0.292635 -0.009644
37.935768 51.004051 0.033235
20.906269 27.954605 0.829869
16.805408 22.396065 1.326041
22.103209 29.536505 2.611473
16.617334 22.115578 2.611905
20.322798 27.091238 4.001375
23.358910 31.169415 5.524264
0.000461 -0.292635 -0.009644
0.000461 -0.292635 -0.009644
0.339547 0.163325 -0.345912
0.337033 0.159591 -0.325690
0.344582 0.169530 -0.315342
0.356436 0.185056 -0.308064
0.376881 0.212074 -0.306981
0.396321 0.237895 -0.303666
0.402711 0.246032 -0.289770
0.441322 0.297238 -0.296494
2.833963 3.494767 -1.727527
3.030032 3.753668 -1.713771
3.263019 4.061431 -1.703303
3.528816 4.414173 -1.692069
3.837571 4.822053 -1.678867
4.211497 5.318128 -1.666841
4.666824 5.919944 -1.655705
5.219982 6.650975 -1.640239
5.828054 7.527463 -1.605194
6.672956 8.657520 -1.570939
6.935083 9.001908 -1.355814
6.951783 9.017087 -1.085746
0.000466 -0.292214 -0.009630
8.190089 10.662486 -0.638337
0.000466 -0.292214 -0.009630
0.000466 -0.292214 -0.009630
22.861832 30.228170 0.901099
17.521761 23.081001 1.372086
16.985279 22.356091 1.988883
17.025814 22.392609 2.655527
20.748575 27.331518 4.053739
23.612309 31.131397 5.541091
0.000466 -0.292214 -0.009630
0.000466 -0.292214 -0.009630
0.345289 0.165933 -0.348958
0.341726 0.160853 -0.327637
0.347235 0.167966 -0.315331
0.355937 0.179133 -0.305365
0.376505 0.205992 -0.304408
0.400469 0.237491 -0.304469
0.405800 0.244128 -0.289760
0.440214 0.289176 -0.293579
2.856830 3.480285 -1.728226
3.057855 3.742621 -1.716345
3.286879 4.041477 -1.702728
3.552363 4.389600 -1.690442
3.869293 4.803376 -1.679904
4.243725 5.294204 -1.666871
4.696584 5.885594 -1.653668
5.257490 6.618093 -1.639542
5.875352 7.497342 -1.605888
6.754218 8.658912 -1.577921
7.941455 10.224233 -1.539464
8.139927 10.478755 -1.260128
0.000466 -0.291788 -0.009616
8.245807 10.606010 -0.637858
0.000466 -0.291788 -0.009616
39.241405 51.511574 0.033243
22.986475 30.029509 0.898867
21.363003 27.866257 1.661978
22.061781 28.775476 2.566251
17.217600 22.375484 2.664904
20.913347 27.219931 4.054703
22.226149 28.935053 5.175355
0.000466 -0.291788 -0.009616
0.000466 -0.291788 -0.009616
0.347915 0.164352 -0.348948
0.343274 0.157915 -0.326648
0.349873 0.166374 -0.315321
0.360817 0.180338 -0.307147
0.380472 0.205680 -0.305252
0.403590 0.235512 -0.304459
0.410003 0.243669 -0.290520
0.453733 0.300346 -0.300107
2.881444 3.466671 -1.729608
3.078712 3.722341 -1.715085
3.314095 4.025919 -1.703937
3.576548 4.364275 -1.688816
3.899736 4.782952 -1.680436
4.280359 5.273984 -1.668282
4.736721 5.862681 -1.654948
5.306781 6.598091 -1.642167
5.924897 7.470073 -1.607227
6.820424 8.636409 -1.581027
7.221400 9.157462 -1.390299
8.107450 10.308735 -1.245810
8.175136 10.389030 -0.941265
8.199116 10.416003 -0.629663
0.000471 -0.291367 -0.009602
0.000471 -0.291367 -0.009602
22.013048 28.401121 0.853635
20.845938 26.858986 1.609055
17.793516 22.865551 2.051635
17.191580 22.064991 2.640039
17.566475 22.543238 3.378472
0.000471 -0.291367 -0.009602
0.000471 -0.291367 -0.009602
0.000471 -0.291367 -0.009602
0.351655 0.164052 -0.349957
0.351263 0.163189 -0.331530
0.351504 0.163313 -0.314373
0.362503 0.177182 -0.306241
0.384413 0.205308 -0.306097
0.406631 0.233613 -0.304449
0.414286 0.243090 -0.291281
0.458288 0.299628 -0.300823
2.904189 3.451923 -1.730307
3.104081 3.707946 -1.716381
3.344751 4.014718 -1.706930
3.610362 4.353114 -1.692139
3.930084 4.762364 -1.680967
4.311124 5.248111 -1.667853
4.771000 5.836545 -1.654982
5.349988 6.574960 -1.643683
5.967205 7.430502 -1.606308
6.880185 8.608357 -1.583023
7.206817 9.023726 -1.376984
8.123857 10.201016 -1.238871
8.176638 10.264902 -0.934563
8.204962 10.293363 -0.625418
22.950258 29.303719 -0.854832
22.973188 29.310623 0.014644
22.076202 28.133041 0.849263
20.740879 26.402895 1.588733
22.177277 28.229769 2.540186
17.159678 21.767891 2.615934
17.839241 22.623943 3.405400
22.354652 28.402260 5.126259
0.000455 -0.290967 -0.009588
0.000455 -0.290967 -0.009588
0.355246 0.163854 -0.350966
0.357026 0.165774 -0.334455
0.354116 0.161703 -0.314362
0.367328 0.178399 -0.308023
0.387266 0.203506 -0.306087
0.409631 0.231667 -0.304440
0.416213 0.239660 -0.290502
2.744718 3.207733 -1.742489
2.929161 3.439979 -1.732371
3.131266 3.694352 -1.718317
3.365496 3.989195 -1.704574
3.633486 4.328142 -1.690512
3.961175 4.740881 -1.681500
4.348722 5.228965 -1.669724
4.810762 5.810791 -1.655848
5.389408 6.541970 -1.643357
6.018730 7.408358 -1.608614
6.932539 8.570569 -1.583357
7.215866 8.929002 -1.368968
8.173709 10.144917 -1.237648
8.183132 10.148966 -0.928551
8.204108 10.167742 -0.620895
25.385365 32.057892 -0.937888
25.211126 31.811342 0.016565
22.308725 28.093904 0.851721
20.304840 25.524494 1.543100
22.158587 27.869968 2.519135
17.253317 21.619190 2.610155
17.665100 22.124992 3.346366
17.589769 22.012363 4.000884
0.000460 -0.290547 -0.009575
0.000460 -0.290547 -0.009575
0.362276 0.167487 -0.355033
0.361953 0.166723 -0.336403
0.355707 0.158640 -0.313414
0.372405 0.179369 -0.309806
0.390198 0.201627 -0.306077
0.412715 0.229640 -0.304431
0.419362 0.237612 -0.290492
2.765423 3.191806 -1.742504
2.948884 3.419993 -1.731023
3.151799 3.673706 -1.717057
3.391274 3.971659 -1.705189
3.664400 4.311419 -1.692187
3.993687 4.722937 -1.683043
4.384067 5.208810 -1.671134
4.847192 5.787307 -1.656711
5.433552 6.517371 -1.644874
6.061948 7.367217 -1.607697
6.993576 8.540549 -1.585356
7.274505 8.888287 -1.369494
8.264525 10.129557 -1.241781
8.272204 10.135029 -0.931665
8.264779 10.117743 -0.620875
25.273380 31.525105 -0.927124
17.590141 21.836077 0.008357
22.134418 27.531174 0.838386
20.096128 24.958950 1.515804
17.250271 21.366798 1.944128
17.386671 21.529245 2.611115
17.385235 21.510830 3.269125
21.418791 26.548567 4.838394
0.000465 -0.290125 -0.009561
0.000465 -0.290125 -0.009561
0.364836 0.165886 -0.355022
0.365591 0.166478 -0.337371
0.362608 0.162563 -0.317156
0.376126 0.179084 -0.310692
0.391891 0.198380 -0.305213
0.416755 0.229171 -0.305233
0.425761 0.239989 -0.292791
2.790091 3.182051 -1.745423
2.969553 3.403888 -1.731038
3.173362 3.654413 -1.716437
3.419348 3.956939 -1.706993
3.692439 4.294289 -1.693309
4.022483 4.700271 -1.683069
4.418365 5.189206 -1.672543
4.884552 5.762744 -1.657576
5.470193 6.483330 -1.644178
6.105844 7.335205 -1.608066
7.040299 8.498685 -1.584858
7.344274 8.871184 -1.373013
11.205023 13.676580 -1.668672
0.000470 -0.289704 -0.009547
8.360298 10.118573 -0.623701
17.915033 21.997604 -0.655467
17.991667 22.083941 0.008476
17.908361 21.963434 0.671553
20.253736 24.858786 1.516557
17.957972 21.999170 2.009989
17.951982 21.974819 2.676787
17.715076 21.664299 3.307264
22.711496 27.845118 5.095135
0.000470 -0.289704 -0.009547
0.000470 -0.289704 -0.009547
0.363108 0.158830 -0.350936
0.369318 0.166148 -0.338339
0.368550 0.165012 -0.319959
0.374317 0.171776 -0.307097
0.394699 0.196538 -0.305203
0.418681 0.225698 -0.304411
0.427643 0.236518 -0.292012
2.806499 3.161998 -1.743259
2.997344 3.393913 -1.734469
3.197207 3.637953 -1.717094
3.442531 3.936110 -1.706419
3.721986 4.275689 -1.694434
4.054820 4.681944 -1.684612
4.450784 5.163306 -1.672575
4.926559 5.741650 -1.659686
5.514000 6.455728 -1.645328
6.148410 7.298807 -1.607791
7.093549 8.458703 -1.585194
7.420674 8.858463 -1.377457
11.322921 13.658631 -1.674308
15.077019 18.269161 -1.666582
0.000454 -0.289305 -0.009533
30.128275 36.753490 -1.088402
0.000454 -0.289305 -0.009533
0.000454 -0.289305 -0.009533
20.182413 24.477314 1.500222
17.775967 21.507679 1.974770
17.912552 21.658531 2.651180
17.921614 21.660810 3.322044
23.540915 28.521564 5.242808
0.000454 -0.289305 -0.009533
0.000454 -0.289305 -0.009533
0.372308 0.165080 -0.357040
0.373112 0.165709 -0.339308
0.379076 0.172793 -0.326514
0.382706 0.176864 -0.311569
0.398720 0.196002 -0.306047
0.420469 0.222274 -0.303589
0.430749 0.234384 -0.292003
2.834009 3.154320 -1.747632
3.014909 3.372648 -1.732437
3.225267 3.625182 -1.719669
3.468730 3.917481 -1.707036
3.746994 4.253124 -1.693907
4.084232 4.658208 -1.684640
4.485805 5.142486 -1.673986
4.962426 5.715082 -1.660137
5.548997 6.419745 -1.644262
6.200811 7.271750 -1.609779
7.137520 8.410466 -1.583866
7.494976 8.839249 -1.381212
11.443378 13.637759 -1.679948
15.049329 18.019054 -1.652062
20.669762 24.837664 -1.506719
30.459356 36.710339 -1.092676
0.000459 -0.288885 -0.009519
21.949223 26.342037 0.812926
20.786642 24.912386 1.534010
17.775501 21.253033 1.960672
18.749958 22.416819 2.755924
18.006008 21.499403 3.313467
23.305201 27.900583 5.153685
0.000459 -0.288885 -0.009519
0.000459 -0.288885 -0.009519
0.376020 0.164678 -0.358049
0.381283 0.170676 -0.344191
0.381725 0.171020 -0.326504
0.378539 0.166830 -0.306181
0.400332 0.192707 -0.305183
0.421081 0.217465 -0.301955
0.426676 0.223805 -0.287375
2.850219 3.134075 -1.745467
3.038339 3.358526 -1.733819
3.246530 3.605500 -1.719049
3.492886 3.897849 -1.707057
3.775532 4.234825 -1.695031
4.110161 4.632050 -1.683656
4.514515 5.114001 -1.673097
5.001938 5.692830 -1.661831
5.583727 6.383553 -1.643196
6.242975 7.234807 -1.609504
7.178648 8.358980 -1.581984
7.566459 8.819281 -1.384734
11.561573 13.617987 -1.685585
15.049899 17.806726 -1.640858
21.197538 25.179316 -1.534497
30.167713 35.929409 -1.075156
0.000464 -0.288463 -0.009505
0.000464 -0.288463 -0.009505
21.870966 25.918512 1.603092
21.598202 25.581318 2.367626
18.849775 22.272217 2.751263
18.592445 21.947424 3.397830
21.608297 25.544025 4.744488
0.000464 -0.288463 -0.009505
0.000464 -0.288463 -0.009505
0.374189 0.157638 -0.353963
0.379425 0.163537 -0.340267
0.387767 0.173287 -0.329307
0.386901 0.171901 -0.310652
0.401929 0.189425 -0.304319
0.422894 0.213974 -0.301133
0.433183 0.225993 -0.289674
2.867453 3.115150 -1.744029
3.062338 3.343722 -1.735202
3.268888 3.587150 -1.719067
3.516945 3.878097 -1.707077
3.802304 4.212769 -1.695056
4.144668 4.616104 -1.686210
4.551489 5.093461 -1.674969
5.037337 5.663469 -1.661868
5.625749 6.353719 -1.643977
6.287473 7.200673 -1.609875
7.218348 8.302993 -1.579549
7.580411 8.730329 -1.377873
11.678628 13.595783 -1.691040
15.018213 17.552668 -1.626060
21.297508 25.002214 -1.531384
30.307487 35.674465 -1.073046
33.124023 38.986992 0.021438
21.021875 24.627378 0.766985
22.187803 25.989471 1.615062
21.788673 25.497339 2.371501
18.294149 21.345423 2.650863
21.604095 25.249443 3.922555
21.710024 25.355331 4.733100
0.000470 -0.288043 -0.009491
0.000470 -0.288043 -0.009491
0.379045 0.158445 -0.355991
0.384356 0.164355 -0.342214
0.393931 0.175436 -0.332111
0.389622 0.170015 -0.310642
0.405849 0.188904 -0.305164
0.429322 0.216113 -0.303561
0.438623 0.226646 -0.291204
2.884579 3.096160 -1.742591
3.084417 3.327876 -1.735901
3.292365 3.570111 -1.719725
3.545813 3.863980 -1.709477
3.834387 4.198510 -1.697830
4.175343 4.595506 -1.687248
4.584937 5.070542 -1.675920
5.073020 5.638624 -1.662732
5.661474 6.321133 -1.643648
6.341989 7.175662 -1.612510
7.138111 8.109256 -1.551613
7.570720 8.611478 -1.366628
11.804677 13.578214 -1.697421
15.010733 17.337183 -1.614438
21.395338 24.815001 -1.527907
30.316887 35.268482 -1.066457
33.032887 38.424778 0.020834
21.184931 24.520887 0.767357
21.205963 24.535618 1.532484
18.791742 21.692993 2.029962
18.293018 21.101097 2.633126
21.825747 25.212574 3.935898
21.928228 25.313047 4.748273
0.000453 -0.287643 -0.009478
0.000453 -0.287643 -0.009478
0.383785 0.159365 -0.358019
0.390293 0.166600 -0.345140
0.397654 0.174980 -0.333039
0.400330 0.177739 -0.316906
0.408499 0.187044 -0.305154
0.428561 0.209983 -0.301113
0.442678 0.225990 -0.291965
2.902204 3.079000 -1.741879
3.104531 3.310990 -1.735917
3.316330 3.554955 -1.721021
3.571431 3.847422 -1.710686
3.859365 4.177435 -1.697853
4.202537 4.572527 -1.687274
4.617333 5.048222 -1.676870
5.108575 5.613563 -1.663596
5.696983 6.288332 -1.643320
6.378422 7.134565 -1.611265
7.130650 8.006597 -1.540027
7.586590 8.530310 -1.360687
11.931307 13.569857 -1.704535
15.022970 17.153725 -1.605438
21.473869 24.624424 -1.523774
30.524105 35.109653 -1.067050
33.053856 38.014526 0.020356
0.000458 -0.287222 -0.009464
21.696896 24.825399 1.557768
18.920727 21.595682 2.030500
21.055286 24.054792 3.012297
21.245031 24.255714 3.805894
0.000458 -0.287222 -0.009464
0.000458 -0.287222 -0.009464
0.000458 -0.287222 -0.009464
0.381897 0.152296 -0.353932
0.392979 0.164705 -0.345129
0.401540 0.174365 -0.333967
0.407772 0.181173 -0.320482
0.414959 0.189069 -0.307707
0.437497 0.214740 -0.305166
0.450574 0.229354 -0.295034
2.927604 3.067253 -1.744800
3.128299 3.295772 -1.737300
3.337235 3.532198 -1.719762
3.595349 3.824513 -1.710114
3.892102 4.162111 -1.700629
4.232118 4.547177 -1.687303
4.648896 5.021152 -1.676902
5.147089 5.585616 -1.664464
5.742228 6.259762 -1.644840
6.430107 7.105948 -1.613253
0.000459 -0.286797 -0.009450
7.623101 8.467578 -1.357980
12.047307 13.538268 -1.709441
15.099943 17.034615 -1.602808
21.609465 24.483444 -1.523148
30.642406 34.811512 -1.064002
33.020023 37.519894 0.019807
23.149538 26.198544 0.827735
22.149752 25.035675 1.579065
23.192604 26.217396 2.473870
21.312466 24.050508 3.027611
0.000459 -0.286797 -0.009450
23.354858 26.352228 4.990473
0.000459 -0.286797 -0.009450
0.000459 -0.286797 -0.009450
0.384424 0.150513 -0.353922
0.400175 0.168088 -0.349034
0.413531 0.183081 -0.341460
0.410459 0.179235 -0.320472
0.420071 0.189790 -0.309407
0.441591 0.214005 -0.305969
0.453526 0.227157 -0.295025
2.941930 3.045165 -1.741909
3.150105 3.279511 -1.738000
3.359162 3.513331 -1.719781
3.621491 3.807018 -1.711325
3.913834 4.135726 -1.699002
4.263741 4.527500 -1.688846
4.675495 4.990325 -1.675554
5.175638 5.550453 -1.662841
5.781116 6.228457 -1.645252
6.473873 7.070696 -1.613625
7.126358 7.809028 -1.518796
7.712790 8.468682 -1.364964
12.172809 13.521364 -1.716006
0.000465 -0.286376 -0.009436
21.768913 24.378464 -1.524541
30.711660 34.485035 -1.059758
22.845594 25.568764 0.010453
22.847385 25.551449 0.811206
21.246675 23.723204 1.504165
22.761671 25.425043 2.411626
22.727819 25.367592 3.207992
21.787806 24.288116 3.850317
21.589361 24.054611 4.582213
0.000465 -0.286376 -0.009436
0.000465 -0.286376 -0.009436
0.385783 0.147417 -0.352893
0.401611 0.164876 -0.348046
0.417406 0.182434 -0.342388
0.417876 0.182608 -0.324048
0.424005 0.189127 -0.310252
0.448199 0.215884 -0.308396
0.462621 0.231841 -0.298864
2.962295 3.029969 -1.742650
3.171191 3.261166 -1.738017
3.383507 3.497164 -1.721078
3.642445 3.783661 -1.710157
3.939982 4.112829 -1.699027
4.293958 4.506155 -1.689885
4.714513 4.971605 -1.678346
5.215391 5.525877 -1.664537
5.819658 6.194454 -1.645295
6.522686 7.041078 -1.615290
7.125495 7.712284 -1.508596
9.519663 10.395624 -1.671784
12.295855 13.500495 -1.722203
15.421000 16.991699 -1.615531
21.957170 24.305285 -1.527958
30.658260 34.024727 -1.051438
33.070522 36.696754 0.018852
0.000448 -0.285977 -0.009422
21.471207 23.697624 1.510104
22.935135 25.313738 2.413665
21.941191 24.185993 3.075818
21.801661 24.020714 3.827711
23.775898 26.202015 5.013518
0.000448 -0.285977 -0.009422
0.000448 -0.285977 -0.009422
0.392953 0.150658 -0.356960
0.403108 0.161604 -0.347057
0.424898 0.185609 -0.346131
0.421847 0.181867 -0.324935
0.431581 0.192470 -0.313661
0.453511 0.216407 -0.310012
0.469409 0.233627 -0.301164
2.983830 3.016033 -1.744117
3.190305 3.241873 -1.737351
3.401397 3.473796 -1.719179
3.669651 3.767273 -1.711962
3.967824 4.093333 -1.700152
4.324064 4.484621 -1.690923
4.748608 4.949089 -1.679758
5.251694 5.501417 -1.665816
5.851783 6.157904 -1.644228
6.573958 7.011457 -1.617279
7.114425 7.608277 -1.496729
9.614791 10.374768 -1.677404
12.418793 13.473543 -1.728035
15.631196 17.025919 -1.627152
22.093296 24.164602 -1.527517
30.666267 33.638866 -1.045332
33.080345 36.282154 0.018377
23.457909 25.625809 0.821771
21.535212 23.492556 1.504725
22.376135 24.402637 2.339344
0.000454 -0.285556 -0.009408
22.846270 24.892553 3.985773
0.000454 -0.285556 -0.009408
0.000454 -0.285556 -0.009408
0.000454 -0.285556 -0.009408
0.388439 0.141245 -0.350834
0.410310 0.164938 -0.350962
0.428704 0.184945 -0.347059
0.432890 0.189179 -0.331199
0.434323 0.190392 -0.313651
0.460099 0.218263 -0.312440
0.476025 0.235495 -0.303464
3.002787 2.999210 -1.744132
3.214358 3.228011 -1.739417
3.429374 3.461546 -1.722394
3.690336 3.743666 -1.710794
3.994269 4.072247 -1.700726
4.348837 4.457202 -1.689939
4.779997 4.923520 -1.680249
5.289897 5.474891 -1.667098
5.892564 6.126380 -1.645010
6.625224 6.986716 -1.619911
7.114386 7.517825 -1.487357
9.706293 10.356554 -1.683020
12.542412 13.455874 -1.734601
15.791179 17.002329 -1.633515
22.226782 24.038313 -1.527524
30.738316 33.327839 -1.041489
33.063541 35.843597 0.017888
0.000458 -0.285135 -0.009394
21.828358 23.539452 1.515470
23.390282 25.225216 2.430127
23.736153 25.583134 3.285676
23.028532 24.801991 3.992105
24.281755 26.147530 5.055285
0.000458 -0.285135 -0.009394
0.000458 -0.285135 -0.009394
0.394441 0.143131 -0.353882
0.414153 0.164195 -0.351931
0.435083 0.186714 -0.349863
0.435684 0.187009 -0.331190
0.438356 0.189547 -0.314496
0.466711 0.220052 -0.314868
0.480361 0.234438 -0.304225
3.023468 2.983109 -1.744874
3.235810 3.211242 -1.740116
3.451539 3.441551 -1.722413
3.714177 3.722124 -1.710816
4.021900 4.052404 -1.701850
4.380849 4.435995 -1.691484
4.813863 4.900587 -1.681661
5.325631 5.447609 -1.667964
5.928038 6.091312 -1.644683
6.674932 6.954947 -1.621578
7.109499 7.423257 -1.477153
9.804280 10.337142 -1.689103
12.675056 13.437219 -1.741727
15.856613 16.874887 -1.630191
22.471077 24.014967 -1.534540
30.862522 33.064583 -1.039281
32.958542 35.315453 0.017335
0.000464 -0.284714 -0.009381
23.826099 25.412563 1.644132
23.177288 24.702902 2.392657
23.987713 25.557373 3.299668
23.348680 24.850166 4.021535
24.321693 25.887274 5.031876
0.000464 -0.284714 -0.009381
0.000464 -0.284714 -0.009381
0.392203 0.136232 -0.349795
0.416717 0.162207 -0.351921
0.436576 0.183319 -0.348915
0.439615 0.186221 -0.332076
0.449733 0.196697 -0.320469
0.473434 0.221691 -0.317296
0.487121 0.236122 -0.306525
3.040966 2.964709 -1.744162
3.252628 3.188276 -1.738085
3.476827 3.426184 -1.724349
3.741091 3.705253 -1.712621
4.054121 4.035878 -1.704627
4.407951 4.411101 -1.691512
4.844531 4.872343 -1.681694
5.362230 5.419185 -1.668831
5.968445 6.059300 -1.645465
6.728609 6.929780 -1.624536
7.103745 7.326331 -1.466672
9.904612 10.323047 -1.695877
12.795985 13.409497 -1.747559
15.881827 16.699310 -1.622579
22.627014 23.903090 -1.535843
30.921488 32.745113 -1.035162
33.046124 34.988338 0.016931
0.000448 -0.284315 -0.009367
23.752312 25.039316 1.628652
31.105036 32.853912 3.193566
23.428991 24.657413 3.201906
23.422325 24.640448 4.009192
0.000448 -0.284315 -0.009367
0.000448 -0.284315 -0.009367
0.000448 -0.284315 -0.009367
0.401791 0.141847 -0.355900
0.418174 0.158889 -0.350932
0.441769 0.183709 -0.350782
0.446071 0.187911 -0.334756
0.457456 0.199768 -0.323878
0.478849 0.222029 -0.318911
0.493995 0.237653 -0.308826
3.060878 2.948889 -1.744904
3.277735 3.175362 -1.740833
3.499419 3.407876 -1.725008
3.767927 3.688202 -1.714427
4.076291 4.010100 -1.703550
4.438896 4.390252 -1.693056
4.872798 4.843363 -1.681265
5.395324 5.390973 -1.669281
6.001056 6.023436 -1.644767
6.778060 6.897324 -1.626203
7.098498 7.233868 -1.456743
9.997371 10.296264 -1.701038
12.928996 13.388737 -1.754688
15.958788 16.586237 -1.620638
22.790701 23.790569 -1.537429
30.940693 32.386890 -1.029816
32.932262 34.463978 0.016387
0.000453 -0.283894 -0.009353
0.000453 -0.283894 -0.009353
30.472528 31.808079 3.109079
23.569290 24.528061 3.201893
23.423159 24.355854 3.984717
0.000453 -0.283894 -0.009353
0.000453 -0.283894 -0.009353
0.000453 -0.283894 -0.009353
0.404156 0.140010 -0.355890
0.420634 0.156959 -0.350922
0.450462 0.188035 -0.355462
0.456106 0.193587 -0.340125
0.462732 0.200159 -0.325578
0.486802 0.224958 -0.322152
0.499461 0.237982 -0.310356
3.080721 2.932965 -1.745645
3.298892 3.158198 -1.741533
3.525871 3.393562 -1.727583
3.792051 3.668229 -1.715043
4.106266 3.992513 -1.705775
4.467066 4.366416 -1.693589
4.911685 4.825462 -1.684517
5.434319 5.364919 -1.670978
6.041097 5.990971 -1.645549
6.820775 6.862634 -1.626897
0.000458 -0.283473 -0.009339
10.083729 10.269404 -1.705734
13.047812 13.361370 -1.760518
16.052889 16.491571 -1.620497
16.156492 16.593170 -1.086405
16.171618 16.596401 -0.539628
0.000458 -0.283473 -0.009339
16.184973 16.591114 0.545932
16.188904 16.582653 1.093307
16.221441 16.603979 1.640543
16.227179 16.597383 2.187704
16.277189 16.642714 2.749370
0.000458 -0.283473 -0.009339
0.000458 -0.283473 -0.009339
0.000458 -0.283473 -0.009339
0.401877 0.133064 -0.351803
0.423224 0.154860 -0.350913
0.454476 0.187040 -0.356391
0.462653 0.195146 -0.342805
0.470623 0.203024 -0.328987
0.494814 0.227828 -0.325393
2.917935 2.729705 -1.758484
3.099748 2.915051 -1.745660
3.314704 3.135489 -1.739501
3.546294 3.371629 -1.726964
3.816749 3.647441 -1.715660
4.121419 3.959538 -1.701948
4.499968 4.345800 -1.695640
4.946438 4.803081 -1.686390
5.469478 5.336749 -1.671844
6.078483 5.957891 -1.645961
6.868522 6.828123 -1.628242
0.000463 -0.283052 -0.009325
10.171025 10.235524 -1.709972
13.167289 13.324182 -1.765802
16.214457 16.466658 -1.627140
23.148472 23.611992 -1.543262
31.235641 31.936163 -1.027607
0.000463 -0.283052 -0.009325
16.361395 16.574112 0.548402
16.370817 16.571276 1.098725
16.376823 16.570803 1.646310
23.793947 24.185976 3.192880
16.369049 16.537739 2.747829
16.346792 16.508230 3.296602
16.336422 16.485081 3.849383
16.349272 16.485762 4.415823
0.398243 0.124989 -0.346697
0.417221 0.144112 -0.344051
0.460895 0.188641 -0.359195
0.465401 0.192893 -0.342795
0.473395 0.200705 -0.328978
0.502845 0.230596 -0.328634
2.928761 2.706662 -1.754648
3.118112 2.897569 -1.745675
3.334338 3.116770 -1.739518
3.572579 3.356966 -1.729540
3.836653 3.623103 -1.714491
4.152512 3.943003 -1.704724
4.529252 4.322979 -1.696678
4.971546 4.770766 -1.685041
5.498977 5.302764 -1.671052
6.110173 5.918993 -1.644895
6.921774 6.801580 -1.631200
7.077758 6.958370 -1.426951
10.264749 10.211264 -1.715595
13.288611 13.292666 -1.771637
16.482315 16.548738 -1.644309
23.292677 23.485838 -1.543923
31.412260 31.747604 -1.027609
32.912750 33.264397 0.015050
32.978992 33.306923 1.107977
32.044250 32.330585 2.146574
31.892296 32.163116 3.195685
24.847719 24.977390 3.314850
24.593744 24.700584 4.108693
0.000447 -0.282653 -0.009312
0.000447 -0.282653 -0.009312
0.000447 -0.282653 -0.009312
0.406633 0.129236 -0.351783
0.418431 0.140865 -0.343063
0.462341 0.185123 -0.358247
0.478205 0.200810 -0.349957
0.482546 0.204831 -0.333242
0.513509 0.235903 -0.333500
2.942018 2.686225 -1.752352
3.141603 2.885254 -1.748596
3.355162 3.099248 -1.740218
3.586779 3.330005 -1.726363
3.859057 3.601342 -1.714513
4.178130 3.920805 -1.705298
4.561140 4.302712 -1.698728
5.000540 4.742451 -1.685073
5.536571 5.276969 -1.672747
6.156877 5.895256 -1.647892
6.972163 6.771847 -1.633512
7.084519 6.882696 -1.420069
10.362718 10.190511 -1.721911
13.424017 13.274357 -1.779320
16.851374 16.728960 -1.671313
23.412281 23.334696 -1.543018
31.593369 31.563755 -1.027793
33.015240 32.983879 0.014696
0.000453 -0.282233 -0.009298
32.061127 31.974483 2.134897
31.966097 31.866179 3.184164
32.641907 32.521435 4.331954
16.735504 16.523464 2.776485
0.000453 -0.282233 -0.009298
0.000453 -0.282233 -0.009298
0.000453 -0.282233 -0.009298
0.410287 0.128466 -0.352792
0.424636 0.142507 -0.345989
0.467613 0.185307 -0.360113
0.492428 0.209748 -0.358016
0.489265 0.206220 -0.335797
0.512691 0.229401 -0.331053
2.959575 2.669146 -1.752365
3.160337 2.866986 -1.748611
3.376486 3.081028 -1.740919
3.612166 3.313092 -1.728300
3.884729 3.581492 -1.715725
4.205720 3.899083 -1.706424
4.589636 4.277366 -1.699262
5.033025 4.715867 -1.686026
5.576402 5.251346 -1.674859
6.196212 5.861817 -1.648674
7.020853 6.737745 -1.635180
7.124100 6.838163 -1.419567
10.457003 10.161563 -1.727306
13.539446 13.230063 -1.784052
17.026863 16.703787 -1.678799
23.385015 23.029348 -1.532350
31.737844 31.332424 -1.026669
33.019268 32.595898 0.014262
33.108669 32.660404 1.098662
0.000453 -0.281807 -0.009284
32.030346 31.551210 3.171371
31.676012 31.175638 4.178308
0.000453 -0.281807 -0.009284
0.000453 -0.281807 -0.009284
0.000453 -0.281807 -0.009284
0.000453 -0.281807 -0.009284
0.413866 0.127725 -0.353801
0.423349 0.136793 -0.343042
0.471546 0.184262 -0.361042
0.499066 0.211091 -0.360696
0.492054 0.203799 -0.335788
0.533841 0.244829 -0.342420
2.976508 2.652464 -1.752378
3.177075 2.847835 -1.747900
3.399816 3.065909 -1.742984
3.636860 3.296641 -1.730237
3.916447 3.568855 -1.719910
4.229700 3.875188 -1.706449
4.619949 4.255342 -1.700807
5.063111 4.688585 -1.686518
5.606770 5.218186 -1.674481
6.228660 5.823681 -1.647978
7.058337 6.694829 -1.634584
7.169185 6.801591 -1.420450
10.556534 10.140655 -1.733855
13.676543 13.211002 -1.791923
17.218149 16.698332 -1.688082
23.323896 22.702579 -1.519922
31.966385 31.195843 -1.028442
32.999966 32.200790 0.013830
42.061577 41.089561 1.389903
33.526081 32.669582 2.206364
32.248734 31.401617 3.174607
32.609753 31.732470 4.277025
0.000458 -0.281386 -0.009270
17.072914 16.460226 3.363369
0.000458 -0.281386 -0.009270
0.000458 -0.281386 -0.009270
0.414971 0.124537 -0.352772
0.421999 0.131098 -0.340096
0.474218 0.181956 -0.361032
0.503172 0.209877 -0.361584
0.500014 0.206426 -0.339197
2.860919 2.507760 -1.785539
2.986730 2.629242 -1.748542
3.200379 2.835105 -1.750821
3.418247 3.044767 -1.742319
3.658744 3.277361 -1.730895
3.933055 3.541312 -1.717552
4.262559 3.858477 -1.709776
4.647365 4.230410 -1.701341
5.098082 4.664286 -1.688392
5.642086 5.187944 -1.675349
6.274658 5.796616 -1.650607
7.060281 6.617249 -1.625906
7.147303 6.697076 -1.408022
10.653330 10.116179 -1.739942
13.825298 13.201964 -1.801272
17.317146 16.594889 -1.688089
23.309896 22.426107 -1.510716
32.142818 31.007467 -1.028581
32.868099 31.689678 0.013315
0.000464 -0.280965 -0.009256
32.622032 31.414186 2.134239
0.000464 -0.280965 -0.009256
32.974945 31.709408 4.299708
0.000464 -0.280965 -0.009256
0.000464 -0.280965 -0.009256
17.236403 16.409061 3.944627
17.237751 16.403742 4.522801
0.418615 0.123691 -0.353781
0.429471 0.133871 -0.344001
0.471878 0.174651 -0.357270
0.508644 0.209780 -0.363367
0.510625 0.211492 -0.344317
2.854537 2.470078 -1.771737
3.011918 2.619571 -1.753175
3.211551 2.810577 -1.747203
3.437350 3.025458 -1.742336
3.679183 3.256664 -1.730914
3.966016 3.529606 -1.722332
4.278005 3.826293 -1.706498
4.673270 4.203997 -1.701368
5.129268 4.637945 -1.689344
5.678189 5.162194 -1.677044
6.307065 5.760531 -1.650279
7.057049 6.533137 -1.615936
7.154581 6.624577 -1.401693
10.760592 10.097345 -1.747418
13.909337 13.124249 -1.801941
17.520365 16.597731 -1.698483
23.301720 22.150654 -1.501790
32.316700 30.816719 -1.028675
32.810917 31.268795 0.012871
42.549629 40.602734 1.389397
29.964136 28.498600 1.948417
33.056015 31.444616 3.216890
16.145691 15.208750 2.089071
0.000447 -0.280566 -0.009242
0.000447 -0.280566 -0.009242
0.000447 -0.280566 -0.009242
0.000447 -0.280566 -0.009242
0.418364 0.119373 -0.351732
0.431774 0.131880 -0.343991
0.469295 0.167540 -0.353509
0.523010 0.218452 -0.371427
0.523909 0.218933 -0.351146
2.859744 2.443931 -1.765248
3.030723 2.605658 -1.754727
3.234689 2.797583 -1.750124
3.459036 3.008602 -1.743719
3.702227 3.238440 -1.732212
3.978189 3.497910 -1.718190
4.312716 3.812576 -1.710926
4.703205 4.181404 -1.702913
5.163157 4.614103 -1.691217
5.708943 5.127465 -1.676668
6.342777 5.723405 -1.650323
7.053583 6.454510 -1.606608
7.179887 6.570000 -1.398969
10.862936 10.080017 -1.754658
14.083446 13.141589 -1.814801
17.640379 16.518988 -1.700843
23.283339 21.884211 -1.492851
32.459023 30.596066 -1.027813
32.818108 30.914396 0.012476
0.000453 -0.280145 -0.009228
0.000453 -0.280145 -0.009228
34.061718 32.035488 3.296534
16.296566 15.169275 2.096592
0.000453 -0.280145 -0.009228
0.000453 -0.280145 -0.009228
0.000453 -0.280145 -0.009228
0.000453 -0.280145 -0.009228
0.418228 0.114943 -0.349683
0.432927 0.128518 -0.343003
0.473222 0.166373 -0.354437
0.527273 0.216999 -0.372314
0.532119 0.221188 -0.354556
2.884691 2.436606 -1.770948
3.045097 2.585511 -1.753201
3.250165 2.776194 -1.748687
3.480644 2.991611 -1.745103
3.724399 3.218111 -1.732871
4.010254 3.483783 -1.722377
4.333411 3.785466 -1.709849
4.731001 4.155162 -1.703448
5.185566 4.579380 -1.689408
5.745700 5.100269 -1.678364
6.381537 5.691217 -1.651474
7.046050 6.368269 -1.595990
7.229306 6.538477 -1.400961
10.969013 10.058026 -1.761905
14.165724 13.060940 -1.815286
17.796379 16.473608 -1.706668
23.305286 21.643417 -1.486133
32.660580 30.421150 -1.028688
32.882057 30.617109 0.012123
42.606647 39.724880 1.375307
34.188564 31.796875 2.199176
34.320023 31.907467 3.303268
16.475372 15.160032 2.108039
0.000458 -0.279725 -0.009214
0.000458 -0.279725 -0.009214
0.000458 -0.279725 -0.009214
0.000458 -0.279725 -0.009214
0.429304 0.121175 -0.356809
0.437821 0.128817 -0.344950
0.479651 0.167667 -0.357242
0.532724 0.216795 -0.374098
2.730085 2.262947 -1.772689
2.901596 2.421588 -1.771772
3.065584 2.572106 -1.755525
3.266337 2.756572 -1.747975
3.499423 2.971935 -1.745119
3.747254 3.199603 -1.734169
4.027653 3.457144 -1.720614
4.359546 3.763457 -1.710975
4.755033 4.126943 -1.702970
5.224858 4.560413 -1.693122
5.779441 5.070156 -1.679231
6.421584 5.660127 -1.652994
7.043773 6.290280 -1.586986
7.280028 6.507949 -1.403230
11.006556 9.974792 -1.758523
14.644581 13.354064 -1.866417
18.015244 16.485435 -1.718452
23.518927 21.590895 -1.491860
0.000463 -0.279303 -0.009201
32.826443 30.211239 0.011698
31.585857 29.037031 1.011410
42.426033 39.069065 2.716234
0.000463 -0.279303 -0.009201
16.824039 15.306206 2.141141
0.000463 -0.279303 -0.009201
0.000463 -0.279303 -0.009201
0.000463 -0.279303 -0.009201
0.000463 -0.279303 -0.009201
0.422737 0.110929 -0.349663
0.433749 0.120789 -0.340046
0.477017 0.160521 -0.353480
0.542145 0.220194 -0.378572
2.743345 2.246375 -1.771844
2.917562 2.404740 -1.771785
3.080592 2.553575 -1.754768
3.286480 2.740627 -1.749444
3.515860 2.948971 -1.743771
3.767201 3.178362 -1.734189
4.053314 3.438170 -1.722420
4.383447 3.737933 -1.711000
4.786022 4.105123 -1.705021
5.252046 4.528435 -1.692695
5.813953 5.038822 -1.680099
6.459604 5.624986 -1.653777
7.039419 6.211240 -1.577657
7.343462 6.486516 -1.407722
11.126784 9.968172 -1.768310
14.831283 13.369718 -1.880212
18.151094 16.412422 -1.722066
23.587097 21.402763 -1.488456
33.042908 30.072182 -1.030194
0.000447 -0.278904 -0.009187
31.304819 28.442802 0.996707
31.401516 28.509995 1.997069
0.000447 -0.278904 -0.009187
17.051357 15.330237 2.158179
0.000447 -0.278904 -0.009187
0.000447 -0.278904 -0.009187
0.000447 -0.278904 -0.009187
0.000447 -0.278904 -0.009187
0.421224 0.105348 -0.346595
0.439979 0.122152 -0.342973
0.479622 0.158109 -0.353470
0.530546 0.204138 -0.368701
2.752912 2.225591 -1.768435
2.939730 2.394465 -1.775859
3.098685 2.536886 -1.755552
3.304343 2.721503 -1.749459
3.537177 2.931624 -1.745154
3.789061 3.157656 -1.734848
4.075295 3.414477 -1.722443
4.415050 3.720786 -1.714327
4.806212 4.071878 -1.703027
5.283970 4.502449 -1.694108
5.844464 5.005659 -1.680137
6.499317 5.593370 -1.655297
7.057356 6.151150 -1.573180
7.410126 6.469879 -1.413043
11.250540 9.959867 -1.778332
14.841269 13.217577 -1.871458
18.263149 16.322798 -1.723737
23.580759 21.140623 -1.480258
33.445953 30.078924 -1.037350
32.835567 29.513065 0.010928
30.993263 27.820503 0.981058
31.540688 28.295422 1.994825
32.470501 29.126104 3.073934
17.047951 15.148029 2.146282
16.261723 14.425549 2.564642
0.000452 -0.278483 -0.009173
0.000452 -0.278483 -0.009173
0.000452 -0.278483 -0.009173
0.427272 0.106805 -0.349643
0.442282 0.120034 -0.342963
0.484758 0.158127 -0.355337
0.542631 0.209880 -0.374967
2.772650 2.214942 -1.771865
2.950981 2.374234 -1.773433
3.114849 2.519419 -1.755565
3.324329 2.705327 -1.750927
3.555576 2.911594 -1.745172
3.810185 3.137455 -1.735506
4.105014 3.399001 -1.726034
4.440867 3.698277 -1.715453
4.844137 4.056138 -1.707606
5.309950 4.471052 -1.693680
5.883557 4.980167 -1.682663
6.544748 5.566738 -1.658295
0.000457 -0.278062 -0.009159
7.475350 6.451358 -1.418088
11.340326 9.923231 -1.783269
14.831338 13.053738 -1.860665
18.386618 16.243082 -1.726516
23.566929 20.882078 -1.471961
33.111237 29.429569 -1.022058
32.896400 29.225079 0.010589
30.655764 27.194952 0.964951
16.406960 14.414287 1.027739
32.454983 28.774054 3.056255
31.034155 27.481369 3.894138
16.454260 14.428719 2.581537
17.168449 15.060961 3.236864
0.000457 -0.278062 -0.009159
0.000457 -0.278062 -0.009159
0.430762 0.105896 -0.350652
0.444563 0.117895 -0.342953
0.484624 0.153400 -0.353451
0.544087 0.205969 -0.374062
2.785608 2.198153 -1.771020
2.964836 2.356400 -1.772632
3.133662 2.504304 -1.757118
3.341424 2.686526 -1.750943
3.579521 2.896487 -1.747921
3.829762 3.115850 -1.735526
4.127554 3.376992 -1.726650
4.453599 3.664124 -1.711624
4.867567 4.027312 -1.707129
5.341577 4.444675 -1.695093
5.915181 4.947889 -1.683115
6.590081 5.539775 -1.661293
7.029211 5.979721 -1.550963
7.555394 6.445473 -1.425909
11.424117 9.880615 -1.787281
14.818539 12.889154 -1.849686
18.567978 16.214203 -1.734702
23.546432 20.620436 -1.463385
33.664719 29.578447 -1.033989
0.000442 -0.277664 -0.009146
30.306089 26.568913 0.948664
16.474859 14.305428 1.026576
17.698400 15.382257 1.653773
17.054453 14.801146 2.124734
16.738157 14.510375 2.612653
16.823067 14.579461 3.155198
0.000442 -0.277664 -0.009146
0.000442 -0.277664 -0.009146
0.435539 0.106098 -0.352681
0.445523 0.114593 -0.341964
0.487082 0.151003 -0.353442
0.540153 0.197346 -0.369570
2.803880 2.186060 -1.773595
2.985439 2.344521 -1.775895
3.148224 2.485398 -1.756361
3.365442 2.673798 -1.754591
3.600545 2.878700 -1.749305
3.853527 3.097917 -1.737463
4.152821 3.357336 -1.728457
4.482005 3.643890 -1.713851
4.892258 3.999611 -1.707157
5.377464 4.421931 -1.697887
5.948116 4.916729 -1.683982
6.627910 5.506022 -1.662445
7.031045 5.909566 -1.543572
